# .PCD v0.7 - Point Cloud Data file format
VERSION 0.7
FIELDS x y z intensity
SIZE 4 4 4 4
TYPE F F F F
COUNT 1 1 1 1
WIDTH 1360
HEIGHT 1
VIEWPOINT 0 0 0 1 0 0 0
POINTS 1360
DATA ascii
7.8086276 -2.1336274 -0.36696327 0
7.2223854 -2.0901561 -0.38783979 0
6.9807105 -1.9421853 -0.31093499 0
7.0133343 -1.9678919 -0.38349137 0
6.8796091 -1.8161997 -0.35121772 0
6.92172 -1.8801296 -0.38660744 0
6.7877212 -1.7185133 -0.35452983 0
-2.6366882 -1.6716673 -0.3431592 0
6.7182484 -1.589843 -0.33074197 0
8.534358 -1.5744367 -0.34991786 0
8.5841408 -1.3957798 -0.37489438 0
-8.6023798 -1.2359622 -0.3105509 0
-8.2701921 -1.1135492 -0.34174854 0
4.6880169 -1.1056086 -0.35728899 0
4.7095737 -1.1038085 -0.36830819 0
6.6358967 -1.145257 -0.35548806 0
-8.9441957 -1.0600164 -0.30349791 0
-1.5154269 -1.0612407 -0.32648245 0
-1.4699966 -1.0733278 -0.35699964 0
4.6783319 -1.0730065 -0.34832719 0
4.7051148 -1.0945232 -0.38548803 0
6.6533194 -1.0438976 -0.30658478 0
-2.8060527 -0.9051646 -0.34074065 0
-2.7544322 -0.96144533 -0.39077654 0
-2.6238723 -0.91190147 -0.3303462 0
-1.4789022 -0.91038394 -0.35180148 0
-1.3900089 -0.91694307 -0.36440074 0
2.9925959 -0.96006608 -0.38267988 0
3.0281763 -0.94792891 -0.34468088 0
4.0189629 -0.92413819 -0.31723973 0
4.6771317 -0.94888794 -0.34445456 0
6.6508555 -0.95757055 -0.35216188 0
-2.7633111 -0.88422924 -0.36524907 0
-2.6231995 -0.88145673 -0.34235734 0
4.0230598 -0.86674058 -0.34752983 0
-9.0846367 -0.71424079 -0.31416613 0
-4.1492176 -0.75983167 -0.3262516 0
6.7364192 -0.76249814 -0.33486167 0
8.534277 -0.74801856 -0.363148 0
-9.0844393 -0.61870551 -0.30953014 0
-8.1258678 -0.61017799 -0.39180708 0
-7.0150161 -0.62272853 -0.36087513 0
-6.966311 -0.6194132 -0.32857522 0
-6.8806663 -0.62442321 -0.32581896 0
-6.775034 -0.61909342 -0.36507088 0
-4.0494928 -0.64338338 -0.34839877 0
6.7720928 -0.6436367 -0.38308853 0
6.8146515 -0.61399776 -0.35253003 0
8.4609375 -0.62340754 -0.3447364 0
-9.0387421 -0.53427267 -0.36953864 0
-8.1559343 -0.54408216 -0.34266677 0
6.8170228 -0.57645172 -0.35581172 0
8.3687439 -0.51628971 -0.36753049 0
8.4627838 -0.59668303 -0.31383204 0
6.9219732 -0.45387495 -0.38187265 0
8.3362122 -0.47057366 -0.35442924 0
-8.9482517 -0.38634574 -0.3066864 0
7.0757012 -0.35357624 -0.38474575 0
7.1038332 -0.33382142 -0.35955366 0
-8.787508 -0.28055048 -0.30898938 0
7.1997099 -0.29470056 -0.36997044 0
7.2502146 -0.25794971 -0.36273551 0
7.8294325 -0.21130171 -0.36856154 0
7.6362185 -0.18761526 -0.35712305 0
2.9983654 0.015335977 -0.34323171 0
3.0490975 0.038826663 -0.34343931 0
3.2706323 0.056632757 -0.34913647 0
4.0314875 0.047623627 -0.35476264 0
-7.716146 0.16384745 -0.34941888 0
-5.3503375 0.78124595 -0.35086679 0
-5.2352738 0.75926155 -0.35350972 0
-5.1160936 0.78000468 -0.36402979 0
-5.1467142 0.80692494 -0.39315769 0
-5.0347848 0.80823374 -0.30836889 0
5.6307325 0.89587486 -0.36584631 0
-2.8137255 0.99581528 -0.31521842 0
1.2861977 0.9779582 -0.38826036 0
3.6583185 0.9382202 -0.30340484 0
4.2479062 0.94109935 -0.35888833 0
5.2625952 0.92721421 -0.32884452 0
5.8817511 0.95848465 -0.36970431 0
5.9117913 0.9583652 -0.36523959 0
-5.6401033 1.0211625 -0.30886495 0
-4.7980371 1.021513 -0.34103847 0
-2.8415794 1.0153509 -0.34975711 0
5.8994241 1.0166607 -0.32694146 0
-5.7093992 1.1791 -0.39670694 0
-5.6978259 1.1880922 -0.39624929 0
-4.7450137 1.1452674 -0.37209535 0
-5.7037764 1.2558455 -0.34541747 0
-4.7320747 1.2718493 -0.35306644 0
-4.7754097 1.4543748 -0.34881097 0
-4.8331881 1.5778995 -0.37063575 0
-4.7936945 1.5117621 -0.35129011 0
-2.8372202 1.5591497 -0.35897598 0
-5.5720916 1.6372337 -0.34498814 0
-4.9259481 1.6547918 -0.34309661 0
-4.8767729 1.6317506 -0.34921542 0
-5.4443216 1.7170768 -0.32474923 0
-5.3693852 1.7518746 -0.35601634 0
-5.2596664 1.7739558 -0.31097907 0
-5.0180254 1.72948 -0.39432642 0
-7.8415179 2.0981817 -0.31501192 0
-7.7169905 2.0674491 -0.35297638 0
-7.8395152 2.1354532 -0.35510644 0
-7.7547851 2.1371522 -0.35113886 0
-7.6990728 2.1328216 -0.33736363 0
-2.826386 2.5957866 -0.38894135 0
-2.8219774 2.6496267 -0.35953251 0
5.7638206 2.6933937 -0.3332586 0
5.8631191 2.6967902 -0.33667365 0
5.9215345 2.6901529 -0.3427099 0
-2.8156095 2.7460754 -0.35794172 0
-2.7854414 2.7567487 -0.36108655 0
-2.5434899 2.7528682 -0.38171351 0
1.0895829 2.7356465 -0.30844498 0
1.5923109 2.7327712 -0.39567399 0
4.4887238 2.7071095 -0.37226817 0
5.5052576 2.7076559 -0.38420036 0
5.8976188 2.7036433 -0.33922511 0
5.9241953 2.705991 -0.33331829 0
-10.04856 2.9938011 -0.32961512 0
-11.012865 3.0354197 -0.33430752 0
-10.995389 3.0311384 -0.35376939 0
-10.045664 3.0281348 -0.33219343 0
-11.263364 3.1105924 -0.37114388 0
-5.9044867 3.3843715 -0.34103319 0
-5.8797264 3.3755562 -0.35536274 0
-5.5981975 3.5785325 -0.34899518 0
-11.267264 3.8674953 -0.36276698 0
-11.263672 3.9390137 -0.3538264 0
-10.033754 4.0009031 -0.33750179 0
-5.0287085 4.0209546 -0.35746068 0
-6.4620676 4.1731868 -0.35934594 0
-4.4257011 4.4543781 -0.34945232 0
-5.2336855 5.0712423 -0.34603477 0
6.6664624 5.1950612 -0.39581653 0
6.7652893 5.1739435 -0.36929646 0
6.828248 5.1604919 -0.35630381 0
6.9083657 5.1700912 -0.36676827 0
-5.0117769 5.2552738 -0.35418895 0
-4.9911108 5.2431259 -0.35046899 0
7.087461 5.2295318 -0.35526991 0
7.1029558 5.2355218 -0.31339207 0
6.4333777 5.3712993 -0.3624059 0
6.3744073 5.4619017 -0.3563861 0
6.4023929 5.4410658 -0.38178986 0
7.2818308 5.457047 -0.3672747 0
7.3011365 5.4796848 -0.34235176 0
6.3435864 5.5638762 -0.35521787 0
7.3185849 5.5434451 -0.36126855 0
6.3402324 5.649693 -0.33608317 0
7.3363452 5.6368837 -0.34761965 0
6.3587132 5.7841258 -0.3624444 0
6.3843389 5.8566856 -0.3024191 0
6.4335151 5.9575386 -0.35784969 0
6.5671868 6.0790453 -0.35477096 0
-11.286804 6.114871 -0.39609349 0
-3.2014923 6.1930709 -0.3169196 0
-3.1420803 6.1793895 -0.32313752 0
-3.0562389 6.1652055 -0.35670638 0
-2.9627471 6.1683464 -0.34291488 0
6.6192164 6.106565 -0.36767957 0
6.7449822 6.1420827 -0.39368054 0
-3.2446201 6.2161455 -0.39190429 0
-3.3811994 6.3046098 -0.31594726 0
-2.6689866 6.3214707 -0.35401487 0
-3.4831734 6.4480357 -0.31781298 0
-2.5876698 6.4228358 -0.35117358 0
-3.5183926 6.548749 -0.3506715 0
-3.5290742 6.6757321 -0.33894807 0
-2.5301366 6.6380596 -0.33039391 0
-2.5694005 6.8535266 -0.34992522 0
-3.3790679 6.9932852 -0.37852079 0
-2.6559706 6.9945688 -0.31939852 0
-3.3125701 7.0578642 -0.3200703 0
-3.2538338 7.092802 -0.33720097 0
-2.7363369 7.0643959 -0.35158482 0
-2.6959701 7.0298982 -0.34232947 0
-3.2367957 7.1045461 -0.3272393 0
-3.1940494 7.1254048 -0.3744083 0
-2.8334098 7.1197224 -0.34360445 0
11.295774 9.1916971 -0.38602594 0
11.335567 9.1813679 -0.39316839 0
9.8499317 9.2100735 -0.30520695 0
11.230337 9.2143469 -0.34083524 0
11.322033 9.2370558 -0.34704673 0
-11.23719 9.3669386 -0.34203446 0
11.177312 -7.7428427 -0.21235801 0
11.217849 -7.7129464 -0.2957859 0
-11.34507 -7.5510654 -0.23580028 0
-5.5655894 -7.5548935 -0.24716452 0
1.4907551 -6.3418851 -0.23142044 0
2.0610676 -6.3779397 -0.21739927 0
1.3944125 -6.294733 -0.27151188 0
2.396647 -6.1191282 -0.2341755 0
2.4068406 -6.126019 -0.26552337 0
-3.7493768 -6.0249763 -0.25398546 0
2.4469435 -6.006412 -0.2972469 0
-4.7458687 -5.948 -0.24953209 0
-3.771168 -5.9710922 -0.2472142 0
2.4857562 -5.9508729 -0.25330269 0
-4.7537665 -5.8989649 -0.29854828 0
2.4832711 -5.8775382 -0.23982605 0
2.521142 -5.859858 -0.25122985 0
2.5076904 -5.7243872 -0.24780694 0
-11.318069 -5.6545696 -0.26812172 0
-11.329534 -5.5811386 -0.28013474 0
1.1110185 -5.5112772 -0.25033435 0
-3.7604344 -5.4763455 -0.2197672 0
1.3545204 -5.2178645 -0.25846133 0
1.3869581 -5.1675305 -0.20292468 0
1.4234449 -5.1365261 -0.2383928 0
2.1641381 -5.1134615 -0.22763334 0
-3.7645199 -5.037499 -0.24323711 0
1.4567333 -5.0878224 -0.29503292 0
1.5319481 -5.0570202 -0.21772651 0
1.6399227 -5.0211115 -0.22977123 0
1.7373683 -5.0130429 -0.21901752 0
-4.761157 -4.9636688 -0.25571513 0
-4.6501265 -4.9736738 -0.27347463 0
-4.4020243 -4.9690056 -0.24149339 0
-4.1331406 -4.9512219 -0.25965989 0
-4.0812039 -4.9514947 -0.20699751 0
-3.8722572 -4.9452572 -0.26577562 0
-3.7711117 -4.9649143 -0.24679343 0
5.2535944 -4.948163 -0.23189762 0
5.4176226 -4.9875503 -0.24333909 0
5.5337772 -4.9808788 -0.24520555 0
5.0721531 -4.8171029 -0.21629646 0
5.1386662 -4.8815942 -0.21207693 0
4.9676437 -4.6623173 -0.24364723 0
5.9526005 -4.5005503 -0.24121551 0
5.9429398 -4.4483261 -0.24514055 0
4.9735889 -4.3521504 -0.23854573 0
5.0024252 -4.3184948 -0.25454095 0
5.909194 -4.3579164 -0.24443641 0
4.9874611 -4.2620177 -0.24614084 0
5.0361838 -4.2219577 -0.26221824 0
5.899991 -4.2983732 -0.2462144 0
5.7385502 -4.1012235 -0.21011338 0
5.2944584 -4.0042872 -0.21497676 0
5.3681831 -4.0265708 -0.29379246 0
5.6419511 -4.0317593 -0.24795175 0
5.3393979 -3.9888978 -0.2251509 0
5.4264808 -3.9886279 -0.22599363 0
-4.0555325 -3.1336365 -0.24526684 0
-4.2156987 -3.0948167 -0.23746856 0
-4.1559925 -3.086165 -0.27712253 0
-4.058382 -3.06777 -0.24011499 0
-2.7654729 -2.9033549 -0.27857593 0
1.2212154 -2.9228814 -0.23558839 0
-7.9099464 -2.8171029 -0.22542708 0
-7.8746629 -2.8279693 -0.24117582 0
-7.0735979 -2.8366199 -0.2404094 0
-2.7698793 -2.8674107 -0.26038635 0
-2.6446762 -2.8712459 -0.207728 0
-2.4837809 -2.8653388 -0.28868303 0
0.90750313 -2.8788509 -0.22348186 0
1.1082101 -2.8835611 -0.29498714 0
1.2102336 -2.8908157 -0.22733846 0
-7.8691721 -2.7792289 -0.24510127 0
-6.8787541 -2.7989361 -0.25583822 0
-2.6363328 -2.7385952 -0.24181956 0
-0.79070759 -2.7692587 -0.29049459 0
-0.48603821 -2.776931 -0.2117465 0
1.1573038 -2.7737336 -0.26873323 0
1.2183334 -2.7673173 -0.24432923 0
-7.0108199 -2.6494002 -0.29834002 0
-2.6232018 -2.1128354 -0.25147015 0
7.6283298 -2.1513982 -0.27972597 0
7.7647781 -2.1381028 -0.25514472 0
7.8076968 -2.1330855 -0.2540569 0
7.1403174 -2.0453544 -0.26932877 0
11.281614 -2.0174222 -0.22344691 0
7.0228205 -1.9722131 -0.25409842 0
6.9153767 -1.8706267 -0.28658015 0
6.7839141 -1.7086852 -0.26232696 0
6.8586226 -1.7863793 -0.258443 0
6.7152643 -1.5763519 -0.24773175 0
8.5388031 -1.5588224 -0.26886413 0
8.5852928 -1.3939188 -0.28642166 0
-8.6338415 -1.2308662 -0.2465001 0
-8.7894306 -1.1959832 -0.27446976 0
-8.307703 -1.1412036 -0.2473667 0
4.6943684 -1.1055226 -0.25839263 0
4.7047482 -1.104183 -0.25186747 0
6.6382895 -1.1308954 -0.25489378 0
-2.7644014 -1.0688646 -0.25762343 0
-1.5111418 -1.0623705 -0.2648395 0
-1.4674916 -1.0589287 -0.25345632 0
4.675766 -1.077819 -0.25295085 0
4.7045035 -1.0853426 -0.25436941 0
6.6431942 -1.0200713 -0.28371638 0
-2.8042045 -0.90440309 -0.2670629 0
-2.7841902 -0.90420151 -0.28728738 0
-2.6355634 -0.91264558 -0.24910668 0
-1.4964007 -0.91933513 -0.2504127 0
-1.3128808 -0.93140721 -0.29037058 0
-1.2876468 -0.92709816 -0.23225337 0
2.9812589 -0.95816529 -0.24036512 0
3.0321062 -0.93902242 -0.20238736 0
4.022603 -0.92230046 -0.20474103 0
4.6746774 -0.94628203 -0.23664998 0
6.658535 -0.94714195 -0.2702882 0
-2.7371082 -0.87281227 -0.23636667 0
-2.5799155 -0.89666414 -0.20952617 0
4.0149293 -0.86499119 -0.24486516 0
8.5603361 -0.81173944 -0.26992089 0
-9.084775 -0.71141958 -0.24871698 0
-8.0913067 -0.7502737 -0.24375223 0
-7.0203571 -0.73168468 -0.22396912 0
-4.1595254 -0.71298432 -0.21209076 0
6.7284217 -0.77392203 -0.24032298 0
8.5265684 -0.73579621 -0.25560889 0
-9.0835085 -0.63757062 -0.25530162 0
-7.0157089 -0.63214707 -0.23329242 0
-6.96101 -0.61607558 -0.22538793 0
-6.8677278 -0.62345052 -0.23337527 0
-6.7791634 -0.61742777 -0.24310897 0
-4.1312256 -0.64664549 -0.23616932 0
-4.0492115 -0.63855124 -0.24053702 0
6.7727504 -0.64228725 -0.24637625 0
6.815197 -0.61338609 -0.25312886 0
8.4715443 -0.63932884 -0.23911779 0
-9.0507841 -0.55167419 -0.23963909 0
-8.1363773 -0.55740356 -0.24819699 0
6.7973948 -0.59609389 -0.28883159 0
6.8285155 -0.57190335 -0.24048559 0
8.384491 -0.53383017 -0.22653785 0
6.9074497 -0.45723486 -0.22461316 0
8.3360252 -0.48022586 -0.27432853 0
-8.9424582 -0.3812398 -0.23443739 0
-8.8623295 -0.31997716 -0.23599702 0
7.0733008 -0.35462427 -0.25732571 0
7.1848259 -0.3004888 -0.20206882 0
-8.8156366 -0.29460832 -0.20151442 0
7.2334552 -0.26833278 -0.27796397 0
7.8085747 -0.20491853 -0.28928524 0
7.6405392 -0.1860933 -0.24457949 0
2.9977131 0.026588038 -0.22847009 0
3.0485682 0.041537054 -0.24170353 0
3.2686043 0.045488834 -0.24102347 0
4.0264211 0.051647674 -0.25313094 0
-7.7150912 0.20080471 -0.20601173 0
-5.3477416 0.77952689 -0.24976882 0
-5.2784443 0.76660138 -0.24879341 0
-5.128674 0.78291351 -0.25726876 0
-5.4223142 0.80982387 -0.24916507 0
-5.1460028 0.80617738 -0.27136585 0
-5.6244087 0.99893641 -0.20046604 0
-2.833334 0.99974716 -0.24096709 0
0.31092405 0.98152649 -0.27663201 0
4.3296409 0.94685644 -0.23975739 0
5.6576533 0.90069503 -0.2338894 0
5.8872252 0.97681272 -0.25621551 0
5.914115 0.95482075 -0.26292235 0
-4.7841935 1.0435092 -0.21398818 0
-2.8364255 1.0151744 -0.24980834 0
-2.7053828 1.0092236 -0.21322647 0
-5.7092857 1.1737323 -0.27416241 0
-5.6942525 1.1754222 -0.27314422 0
-4.7403808 1.1676593 -0.2685439 0
-5.7072639 1.2585659 -0.22167474 0
-4.7324677 1.2881926 -0.25769368 0
-4.7304583 1.3145485 -0.2888346 0
-4.7680645 1.4474711 -0.27155119 0
-5.6070633 1.5977077 -0.23819986 0
-4.8596816 1.596964 -0.25864506 0
-4.7910557 1.5063479 -0.24619564 0
-2.835458 1.5547166 -0.26946387 0
-5.5661178 1.6436058 -0.24534695 0
-4.9161072 1.6484866 -0.23013338 0
-4.8624339 1.6199679 -0.24108614 0
-5.4585662 1.7083795 -0.22862606 0
-5.3696342 1.7513533 -0.25369215 0
-5.0313606 1.7371533 -0.28472236 0
-7.8411541 2.0656717 -0.22712339 0
-7.8353553 2.1417618 -0.25774738 0
-7.7565842 2.13323 -0.24919203 0
-7.6960578 2.1309993 -0.23974951 0
-2.8202584 2.6727736 -0.26862881 0
5.8988624 2.6973424 -0.25974977 0
5.9225421 2.6919651 -0.24026079 0
-2.8184872 2.7421808 -0.2461729 0
-2.7866518 2.7551591 -0.25819281 0
-2.6132317 2.7567043 -0.2296031 0
-2.5842423 2.7544518 -0.26579848 0
1.5705533 2.7339921 -0.26335049 0
5.5149598 2.7061746 -0.21714392 0
5.8848157 2.70368 -0.22511284 0
5.9219284 2.7049592 -0.23345661 0
-10.062018 2.9873333 -0.20377375 0
-11.001886 3.0517311 -0.26054958 0
-10.999 3.0433683 -0.26231122 0
-10.042938 3.0172763 -0.24857691 0
-11.268778 3.1117454 -0.28675658 0
-10.050595 3.1552331 -0.29899091 0
-5.9081993 3.3673711 -0.26000088 0
-5.8793378 3.3795817 -0.24965096 0
-5.8517179 3.4065967 -0.22913064 0
-11.269219 3.8675787 -0.2619808 0
-11.277483 3.9344997 -0.23505393 0
-10.031358 3.9941015 -0.25908741 0
-5.0686002 3.98982 -0.25574157 0
-6.4584565 4.1691804 -0.25135556 0
-4.4316325 4.4458222 -0.24541046 0
-5.3027835 5.0261717 -0.23896627 0
6.695013 5.184576 -0.22888204 0
6.7666144 5.1709971 -0.25779215 0
6.8308611 5.1647415 -0.24199319 0
6.924428 5.1735744 -0.25930369 0
-5.0081282 5.2590513 -0.24986202 0
-4.9934888 5.2498083 -0.25469068 0
6.510077 5.2871819 -0.24114299 0
7.0929108 5.2376223 -0.23649769 0
7.1136618 5.2427659 -0.22799748 0
6.4592876 5.344182 -0.24767864 0
6.3793616 5.4660459 -0.23672685 0
6.4044752 5.4315414 -0.27668229 0
7.2807007 5.4498343 -0.22235925 0
7.3037596 5.4897728 -0.28400755 0
7.3251085 5.553689 -0.24592322 0
6.3429608 5.6769838 -0.27151722 0
7.3368816 5.619276 -0.26196012 0
6.352293 5.7406502 -0.20328386 0
6.3705807 5.8173366 -0.25117561 0
6.4309158 5.9560528 -0.28516787 0
6.4733796 6.0060773 -0.26783699 0
6.562809 6.0764227 -0.26106596 0
-3.1494064 6.1784997 -0.22123684 0
-3.0502107 6.1657333 -0.24897607 0
-2.9493394 6.1656475 -0.27412757 0
6.636117 6.1113081 -0.25638071 0
-3.2598341 6.2265272 -0.28476602 0
-2.6983869 6.2953024 -0.23922016 0
-3.391572 6.3190355 -0.21309461 0
-2.6793032 6.3086176 -0.27211195 0
-2.5671194 6.4542446 -0.27656803 0
-3.5065527 6.5245295 -0.24531977 0
-2.5441215 6.5314884 -0.27793068 0
-3.5253685 6.6411471 -0.25885078 0
-2.5301011 6.6397362 -0.22362553 0
-2.5702839 6.8474927 -0.24532573 0
-3.3783393 6.9908495 -0.2012803 0
-2.6620145 6.9984818 -0.23492557 0
-2.5886412 6.9173288 -0.2988185 0
-3.3265128 7.0503321 -0.25001001 0
-3.2581329 7.092032 -0.22446942 0
-2.7395959 7.0670943 -0.25156358 0
-2.6755004 7.0123549 -0.24041821 0
-3.2193413 7.1142988 -0.24525823 0
11.292069 9.2079601 -0.2631323 0
11.317027 9.2532816 -0.26298851 0
-11.249888 9.36203 -0.24164978 0
-6.2400217 9.3299007 -0.28132832 0
11.212252 -7.7352152 -0.12995166 0
11.197577 -7.6947222 -0.12648748 0
-11.40312 -7.5471363 -0.18842058 0
-11.337134 -7.5720048 -0.13043264 0
-5.5616465 -7.5523767 -0.16136885 0
2.0509171 -6.3875246 -0.18749483 0
1.3463929 -6.2870188 -0.18973221 0
1.4006166 -6.2927322 -0.12561655 0
1.2680082 -6.1985636 -0.1882571 0
2.3903663 -6.1084452 -0.18549815 0
2.4472542 -6.053668 -0.14040084 0
-4.7449675 -5.9469848 -0.15035096 0
-3.7714646 -5.9568496 -0.14888091 0
2.4741936 -5.9457579 -0.12772825 0
2.5268681 -5.9058356 -0.14474663 0
-3.7991984 -5.8654175 -0.1660364 0
2.4875021 -5.8678308 -0.11610501 0
2.5134921 -5.7522612 -0.1260096 0
2.5059702 -5.6685691 -0.10109355 0
1.0985775 -5.5603013 -0.1863372 0
1.3867712 -5.2085195 -0.15051982 0
1.3790383 -5.1762857 -0.12813957 0
1.4462625 -5.1419454 -0.1332251 0
2.154037 -5.100801 -0.12932292 0
-3.7599213 -5.0291743 -0.18088223 0
1.4367665 -5.0967607 -0.12075646 0
1.535347 -5.0477686 -0.13037917 0
1.6215191 -5.0344238 -0.17325601 0
1.7407367 -5.0115147 -0.10957564 0
-4.7418928 -4.9550953 -0.14039804 0
-4.6761179 -4.9621601 -0.13635367 0
-4.3827791 -4.9589972 -0.17272867 0
-4.0354381 -4.9512935 -0.15341404 0
-3.8400571 -4.9525275 -0.13842432 0
-3.7700584 -4.9524174 -0.14791125 0
1.8111115 -4.9971085 -0.16094211 0
5.1761012 -4.9062386 -0.12901038 0
5.3233867 -4.9533587 -0.18667595 0
5.4343519 -4.9879732 -0.13805455 0
5.0823221 -4.828618 -0.14246987 0
5.144453 -4.8842769 -0.12263315 0
4.9653988 -4.6825457 -0.13063291 0
5.9513431 -4.4575758 -0.1705122 0
4.986455 -4.3072634 -0.13378966 0
5.0015559 -4.348567 -0.18183996 0
5.9117675 -4.3648777 -0.14430177 0
4.982542 -4.268919 -0.14887601 0
5.0280585 -4.24581 -0.16576014 0
5.8959999 -4.2815695 -0.16740339 0
5.0457993 -4.1863108 -0.13990305 0
5.2844005 -4.0041938 -0.11874498 0
5.6276817 -4.0134058 -0.13713166 0
5.7106047 -4.0804458 -0.14093527 0
5.3523879 -3.987812 -0.11865424 0
-4.0535359 -3.1266768 -0.12862465 0
-4.211906 -3.0935023 -0.13915041 0
-4.1545486 -3.0887747 -0.15796296 0
-4.053453 -3.0753703 -0.15811372 0
-2.763593 -2.9228847 -0.18677115 0
1.2256321 -2.9294159 -0.14572954 0
-7.9107008 -2.8143094 -0.10426627 0
-7.878397 -2.8215661 -0.16304013 0
-2.7707052 -2.8618987 -0.15150911 0
-2.6477766 -2.8675075 -0.11205316 0
-2.5009708 -2.8620288 -0.13957939 0
1.1671261 -2.8809536 -0.13709101 0
1.2120701 -2.8864708 -0.11530588 0
-7.861629 -2.7805679 -0.14807169 0
-6.8768029 -2.7901392 -0.15360522 0
-2.7837024 -2.7490933 -0.19415146 0
-2.6459246 -2.7646427 -0.15137415 0
-0.79245019 -2.7719576 -0.19119355 0
-0.47983027 -2.7770512 -0.12394206 0
1.075192 -2.7979867 -0.14161476 0
1.1953573 -2.7647061 -0.12919042 0
1.2164041 -2.7562389 -0.13825731 0
7.6525054 -2.1612942 -0.14128257 0
7.7714157 -2.1356912 -0.16739067 0
7.8081541 -2.1317098 -0.18569984 0
7.1385684 -2.0445542 -0.19254258 0
7.0210705 -1.9703691 -0.1677698 0
6.9149847 -1.8611951 -0.16318488 0
6.7846184 -1.7051439 -0.17632413 0
6.8343859 -1.7663995 -0.16746122 0
-4.0285816 -1.6039701 -0.10034803 0
-2.6294317 -1.6700168 -0.15424295 0
8.5092955 -1.6118367 -0.10232131 0
6.718636 -1.5829022 -0.16338789 0
8.5403118 -1.5569713 -0.18659858 0
8.5870914 -1.3896275 -0.1541343 0
-8.6180363 -1.2330778 -0.15903172 0
-8.8199987 -1.178323 -0.1853039 0
-8.7873545 -1.1936188 -0.16185233 0
-8.310214 -1.1434913 -0.13510266 0
-2.7651181 -1.1093981 -0.11992224 0
4.6853209 -1.1047609 -0.1426226 0
4.7120085 -1.1009765 -0.15973572 0
6.6353607 -1.1617174 -0.14989947 0
-8.938591 -1.0605197 -0.17799845 0
-1.5065129 -1.0788991 -0.18416464 0
-1.466071 -1.0529891 -0.14625336 0
4.6802931 -1.0812367 -0.15752618 0
4.7088661 -1.0841269 -0.10947052 0
6.6544857 -1.0419197 -0.1823065 0
-2.8005199 -0.90241206 -0.16724902 0
-2.6201639 -0.91117454 -0.14145406 0
-1.4917405 -0.91469228 -0.14642599 0
-1.2564034 -0.92724878 -0.14004409 0
2.9762793 -0.96339667 -0.14131001 0
3.0341487 -0.94301248 -0.18624626 0
4.0514493 -0.92198998 -0.12899438 0
4.6847548 -0.94843489 -0.13419268 0
6.6540356 -0.96842241 -0.16572028 0
-2.7415576 -0.86918604 -0.13378887 0
-2.648663 -0.88187909 -0.15789995 0
4.0206289 -0.86500877 -0.14232336 0
-9.0848408 -0.71202755 -0.18403962 0
-4.1560497 -0.70935297 -0.13349178 0
6.7361341 -0.75974309 -0.12669969 0
8.5228233 -0.7328583 -0.16738403 0
-9.0829906 -0.64363372 -0.13876253 0
-7.0403543 -0.62619889 -0.16048197 0
-6.9937944 -0.60836136 -0.14466217 0
-6.8307967 -0.62215602 -0.14481923 0
-6.778923 -0.6153571 -0.12142989 0
-4.1816134 -0.61768746 -0.12265655 0
-4.0445504 -0.649517 -0.13498257 0
6.8108649 -0.61640346 -0.16308935 0
8.4776783 -0.63729668 -0.13411155 0
-9.054038 -0.5736208 -0.10045614 0
-8.1626587 -0.51956999 -0.16465031 0
6.7970047 -0.59588313 -0.11417316 0
6.8247328 -0.57521784 -0.14916629 0
8.3637257 -0.5038057 -0.13776769 0
8.34163 -0.47445533 -0.18445437 0
-8.9557571 -0.39450586 -0.12312737 0
-8.8609819 -0.32010329 -0.13595016 0
7.0728755 -0.35397023 -0.17334965 0
7.1048098 -0.33323133 -0.14322031 0
7.2465034 -0.26207635 -0.15983835 0
7.8197265 -0.20546883 -0.19096899 0
7.6117277 -0.18689461 -0.1821657 0
3.04776 0.042820401 -0.14096563 0
4.0331025 0.050413568 -0.14738582 0
-5.4026999 0.78050667 -0.13316214 0
-5.3373566 0.78786564 -0.15034178 0
-5.2866545 0.76659602 -0.1388021 0
-5.1692801 0.77458817 -0.19311033 0
-5.0998135 0.78671366 -0.11136538 0
-5.4052553 0.80806744 -0.1225036 0
-5.3919206 0.80005574 -0.10823236 0
-5.1561127 0.80712551 -0.15022236 0
-5.0356665 0.80943537 -0.14435677 0
3.6447449 0.94141215 -0.13799956 0
5.1483841 0.90552789 -0.15627033 0
5.2498121 0.92998582 -0.12599212 0
5.8963532 0.97082961 -0.14439945 0
5.9114704 0.95488507 -0.1584693 0
-4.7755952 1.0551294 -0.10573877 0
-2.8419538 1.0244271 -0.15423122 0
-2.7257357 1.0160315 -0.14684449 0
-5.6831012 1.1474581 -0.15022014 0
-4.7317295 1.1933547 -0.17387661 0
-5.706512 1.2138591 -0.15028222 0
-4.7314978 1.2676862 -0.14176705 0
-2.8206682 1.2548881 -0.16347404 0
-4.7308292 1.3117588 -0.17307726 0
-4.7727923 1.4625978 -0.16664872 0
-4.8584661 1.5962715 -0.11822521 0
-4.7944622 1.5152674 -0.17110956 0
-5.5715752 1.635987 -0.1519528 0
-4.9196234 1.6546028 -0.12850747 0
-4.8736725 1.6300263 -0.13178718 0
-5.463685 1.7073417 -0.13163757 0
-5.3620815 1.7560085 -0.12484602 0
-5.2903357 1.7606709 -0.17547296 0
-5.1676126 1.7612338 -0.17309484 0
-7.6904473 2.081162 -0.10732303 0
-7.8363147 2.1423535 -0.15780477 0
-7.7547965 2.134742 -0.14240263 0
-7.6913495 2.1258526 -0.12496829 0
-2.8213377 2.6646297 -0.14525437 0
5.7845898 2.6950989 -0.14253458 0
5.9226208 2.6842489 -0.14146657 0
-2.8150094 2.7418361 -0.14894962 0
-2.7909629 2.7599199 -0.15921955 0
-2.3417711 2.7563691 -0.17401151 0
1.0825777 2.7394178 -0.1728465 0
1.5590377 2.7362719 -0.13012728 0
3.0514541 2.7153687 -0.19307014 0
4.4774289 2.7112041 -0.18771845 0
5.8581429 2.7010746 -0.1448382 0
5.9240947 2.7027936 -0.14419153 0
-10.062108 2.9922047 -0.13525939 0
-11.024402 3.037199 -0.16541457 0
-10.999659 3.0435243 -0.16284616 0
-10.037076 3.0194283 -0.15796494 0
-11.255156 3.1104856 -0.17283037 0
-5.8800602 3.3785341 -0.14752948 0
-5.9469156 3.4071348 -0.19224837 0
-5.8444028 3.4030523 -0.10251252 0
-11.259979 3.8742626 -0.16096522 0
-11.261765 3.9429488 -0.15619043 0
-10.030273 3.9946735 -0.15759838 0
-5.0974803 3.9698272 -0.15289646 0
-6.4563584 4.1772285 -0.15064743 0
-4.429266 4.4575481 -0.14550039 0
-5.3366299 4.9973702 -0.13654688 0
-5.3146868 5.0073414 -0.18276162 0
-4.9157186 5.155653 -0.11067519 0
6.7583904 5.1775093 -0.14596263 0
6.8228188 5.1645145 -0.14245193 0
6.924789 5.1746984 -0.1645726 0
-5.0114336 5.2540302 -0.13856836 0
-4.9951262 5.2513208 -0.1454822 0
7.1061726 5.2411032 -0.12512836 0
6.4408631 5.3660913 -0.14877972 0
6.3810015 5.458333 -0.12603834 0
6.411087 5.4158978 -0.14587049 0
7.2906713 5.4559278 -0.16640446 0
6.3429155 5.5674 -0.16614193 0
7.3233924 5.5590739 -0.14877968 0
6.3430862 5.6716442 -0.13337293 0
7.3397303 5.632359 -0.14473759 0
6.3808942 5.8474374 -0.13702573 0
6.4416986 5.9718351 -0.16925095 0
6.4846029 6.0168333 -0.14207736 0
6.5536513 6.0741749 -0.14507955 0
-3.1460063 6.1791029 -0.15158117 0
-3.0387387 6.1668735 -0.13472319 0
-2.9321923 6.1689439 -0.13399073 0
6.6179008 6.1061244 -0.17542294 0
6.7618942 6.1574483 -0.11071169 0
-3.2242687 6.2083187 -0.14883307 0
-2.6952665 6.2990456 -0.15777925 0
-3.3764186 6.3017173 -0.13315366 0
-2.6780896 6.3082004 -0.16628826 0
-3.4733207 6.4315286 -0.16735612 0
-2.5746958 6.446588 -0.15673704 0
-3.5227005 6.5606103 -0.17537302 0
-3.4965615 6.5072312 -0.12535782 0
-3.5242398 6.6590018 -0.13635682 0
-2.5293217 6.6345825 -0.14364435 0
-2.5803268 6.8795896 -0.15801969 0
-2.6500053 6.9893475 -0.14413154 0
-2.5810666 6.9077787 -0.15472023 0
-3.3051519 7.0672569 -0.1374509 0
-3.2914982 7.0597205 -0.12043711 0
-2.7503588 7.0745788 -0.13493973 0
-2.6687543 7.0086007 -0.14275332 0
-3.2269707 7.1121955 -0.15572409 0
-2.8038268 7.108633 -0.13584954 0
-11.272373 7.2602272 -0.18856052 0
11.316699 9.1923466 -0.12715586 0
11.276256 9.2143927 -0.13607277 0
11.319008 9.2289658 -0.15046787 0
-11.244646 9.3459883 -0.17741828 0
-6.2398872 9.3307533 -0.14154309 0
11.1761 -7.7118397 -0.05687058 0
11.223009 -7.7303519 -0.023051426 0
-11.343731 -7.5635095 -0.069496371 0
-5.584579 -7.5650601 -0.076263614 0
-11.353205 -7.4938149 -0.076918572 0
1.4840789 -6.3351254 -0.060974389 0
2.0558364 -6.3822966 -0.058518611 0
1.337816 -6.2786388 -0.07816349 0
2.332938 -6.1843014 -0.066039734 0
2.4107935 -6.1308994 -0.010971576 0
-11.316547 -6.0114193 -0.097483627 0
-3.7223592 -6.0088849 -0.0012769066 0
2.3996882 -6.0943518 -0.032576695 0
2.4415228 -6.0567131 -0.032243747 0
-4.7437806 -5.9451556 -0.063429452 0
-3.7832253 -5.959866 -0.054390971 0
2.477318 -5.9643283 -0.021123085 0
2.4812229 -5.8859844 -0.043602146 0
2.5207951 -5.8594217 -0.027259775 0
2.5095747 -5.7172346 -0.012186566 0
1.0971514 -5.5640879 -0.083143234 0
1.364048 -5.2129054 -0.030934775 0
-3.7659717 -5.1107259 -0.088995241 0
1.3590059 -5.1767917 -0.0069062486 0
1.4381611 -5.1273975 -0.037227657 0
-3.7646515 -5.0249434 -0.074208461 0
1.5299401 -5.05476 -0.045577187 0
1.6314998 -5.0251374 -0.069768213 0
1.7446282 -5.0101004 -0.0001937151 0
1.8595529 -5.0012498 -0.014002733 0
2.0272226 -5.0523386 -0.071686372 0
2.1503713 -5.0987186 -0.04117927 0
-4.7513194 -4.9603901 -0.067086816 0
-4.6682568 -4.986361 -0.024999106 0
-3.9993033 -4.9503574 -0.074294813 0
-3.7610378 -4.9627471 -0.052304581 0
5.2376184 -4.9379301 -0.052438051 0
5.3653736 -4.9732251 -0.077754281 0
5.4288936 -4.9870377 -0.03449554 0
5.0707188 -4.8117762 -0.028734187 0
5.1450887 -4.8843355 -0.033031337 0
5.2075748 -4.8935728 -0.090721488 0
5.0510802 -4.7890234 -0.082584165 0
4.9627171 -4.6331182 -0.033042151 0
5.9434147 -4.510519 -0.05368311 0
5.9408226 -4.4371152 -0.069295272 0
4.9822268 -4.3265533 -0.056146163 0
5.0040641 -4.3353877 -0.05193603 0
5.8985028 -4.3049669 -0.074131526 0
5.9154491 -4.3649426 -0.037115052 0
4.9744272 -4.289669 -0.051739126 0
5.0295115 -4.2341223 -0.054271735 0
5.0285769 -4.1975369 -0.042797759 0
5.7580309 -4.1150351 -0.025229096 0
5.2969751 -4.0023503 -0.023526721 0
5.3484139 -4.0188718 -0.081410088 0
5.6098814 -4.0058994 -0.044405587 0
5.3313746 -3.9923067 -0.051988274 0
5.406826 -3.9801664 -0.03218098 0
-4.0556006 -3.1136439 -0.023375332 0
-4.2259541 -3.0915487 -0.043029949 0
-4.1392941 -3.0879266 -0.015504666 0
-4.0485144 -3.0741043 -0.05286593 0
1.2236665 -2.9286928 -0.033898074 0
-7.8797264 -2.8169937 -0.055229023 0
-7.0699301 -2.8335419 -0.044671595 0
-2.7767122 -2.8618257 -0.044469975 0
-2.6112812 -2.8662252 -0.016093835 0
0.9139595 -2.877923 -0.031604871 0
1.095758 -2.8847795 -0.029068716 0
1.1982352 -2.8895974 -0.039199289 0
1.2059404 -2.8925476 -0.035184972 0
-7.8741746 -2.7820821 -0.056700993 0
-6.877305 -2.7905312 -0.05147782 0
-2.780849 -2.755203 -0.050776005 0
-2.6428082 -2.7355733 -0.047090348 0
-0.79978466 -2.7614069 -0.091701292 0
-0.4867959 -2.7800584 -0.035440281 0
1.0794044 -2.7926962 -0.044341609 0
1.2165231 -2.7554157 -0.044259306 0
-7.0099258 -2.6848369 -0.097452559 0
-2.6279807 -2.1090446 -0.058689475 0
7.6985579 -2.1533656 -0.050344259 0
7.7815995 -2.1366258 -0.084556386 0
7.804554 -2.1337206 -0.097237125 0
7.157856 -2.0520136 -0.051758811 0
7.0245695 -1.9716053 -0.082344703 0
6.9177423 -1.8648685 -0.05883396 0
6.7886229 -1.7139877 -0.071139961 0
6.7246666 -1.5978806 -0.079363197 0
8.5892553 -1.3782489 -0.022004982 0
-8.6244402 -1.2305982 -0.05104401 0
-8.7866116 -1.1929892 -0.068172723 0
-8.2927961 -1.1300274 -0.025555879 0
-2.7634006 -1.1254849 -0.026639834 0
4.7067165 -1.1019181 -0.071215458 0
6.6384993 -1.1511965 -0.068649985 0
-8.9329853 -1.0611211 -0.053693909 0
-2.6350908 -1.0268811 -0.066474952 0
-1.4637372 -1.0558622 -0.045816213 0
-0.92377615 -1.0430988 -0.060234144 0
4.6788478 -1.0824014 -0.058760177 0
4.7087984 -1.0772533 -0.04713022 0
6.6537333 -1.0241642 -0.058276072 0
-2.7981071 -0.90142208 -0.070669077 0
-2.6251163 -0.91199797 -0.030200729 0
-2.5724092 -0.91265535 -0.0058214124 0
-1.5061188 -0.92101967 -0.0035242871 0
-1.49164 -0.91510785 -0.0035122433 0
-1.2408024 -0.92572403 -0.046700232 0
1.2121499 -0.93933451 -0.043810077 0
2.8843851 -0.96345288 -0.048455931 0
3.0204341 -0.95468688 -0.044908248 0
4.026525 -0.9242484 -0.052173134 0
4.6766648 -0.94514984 -0.059813108 0
6.6497135 -0.96838778 -0.054616719 0
-2.747776 -0.87457627 -0.040311702 0
-2.6183698 -0.88408518 -0.021207895 0
4.0243664 -0.86490488 -0.058426511 0
-8.0934582 -0.71253014 -0.087627873 0
-4.1525688 -0.70563865 -0.054949202 0
6.7305856 -0.76802951 -0.044843763 0
8.5391769 -0.75296664 -0.054829799 0
-9.0783434 -0.65807891 -0.053044431 0
-7.0135684 -0.6385442 -0.069757529 0
-6.9613762 -0.62000889 -0.038138524 0
-6.8466234 -0.62301826 -0.0060033668 0
-4.0472693 -0.64259082 -0.043168236 0
6.7566557 -0.67847013 -0.094775289 0
6.815876 -0.61618084 -0.048211273 0
8.4712973 -0.63131571 -0.048509467 0
8.500082 -0.69668865 -0.055243365 0
-9.0515785 -0.5511381 -0.050816018 0
-8.1693802 -0.53201389 -0.025905298 0
6.8184829 -0.58962101 -0.067322776 0
8.39608 -0.54528761 -0.084608451 0
-8.9690351 -0.41113788 -0.016423777 0
-8.1799831 -0.46993327 -0.048638962 0
6.8860631 -0.49781591 -0.062969856 0
6.9204016 -0.45074224 -0.064313218 0
8.3305435 -0.46215799 -0.078482717 0
-8.8557224 -0.31447345 -0.054693408 0
7.0672846 -0.35697213 -0.058417343 0
-8.7988758 -0.28465724 -0.015147604 0
7.1736608 -0.29427481 -0.08899156 0
7.2326474 -0.27203602 -0.042119682 0
7.8227654 -0.20661068 -0.092736676 0
7.6174583 -0.18640821 -0.051874645 0
2.9917293 0.020804837 -0.00032260269 0
3.0430837 0.044111162 -0.044523511 0
3.2745733 0.046832383 -0.072020188 0
4.0317445 0.05305421 -0.055329096 0
-7.7139797 0.23801041 -0.06454277 0
-5.4149194 0.78578633 -0.028628752 0
-5.3364577 0.78185552 -0.050837386 0
-5.2830276 0.78634077 -0.019940048 0
-5.1225991 0.78152966 -0.028801605 0
-5.4087286 0.8049531 -0.026795097 0
-5.1472197 0.80509961 -0.028663771 0
5.6287045 0.89661944 -0.099919468 0
1.2874355 0.98192143 -0.0060985666 0
4.3129787 0.9448567 -0.036721036 0
5.8959894 0.97615457 -0.041051619 0
5.9185972 0.95788813 -0.069418967 0
-5.6524701 1.0511253 -0.088782549 0
-4.7726393 1.0598936 -0.052202187 0
-2.8337257 1.0130626 -0.064731635 0
-2.7097125 1.0088923 -0.044880826 0
-5.6725507 1.1206508 -0.026056297 0
-4.7371559 1.1711715 -0.043736394 0
-5.7040186 1.2235873 -0.063794911 0
-4.7300053 1.2633309 -0.037401665 0
-2.8216088 1.2836146 -0.092123978 0
-4.7313766 1.3082607 -0.057811782 0
-2.8215008 1.304961 -0.022248352 0
-4.768353 1.462165 -0.049704496 0
-4.8106685 1.5476046 -0.095956363 0
-2.8351583 1.5771304 -0.045591675 0
-5.5691442 1.6404237 -0.06064146 0
-5.478447 1.6982422 -0.034606956 0
-4.9176979 1.6521059 -0.053353723 0
-4.8677254 1.6191347 -0.029341891 0
-5.4068346 1.7378616 -0.0067734309 0
-5.2890415 1.7635186 -0.038543932 0
-7.7192593 2.047224 -0.089862898 0
-7.8402367 2.141165 -0.061777472 0
-7.7665443 2.1377051 -0.041098684 0
-7.6949892 2.1356258 -0.023339067 0
-2.820945 2.6859941 -0.036311563 0
5.8910618 2.6973844 -0.050134331 0
5.9248509 2.6811965 -0.05017674 0
-2.8145421 2.746314 -0.069511794 0
-2.7843018 2.7571666 -0.054426227 0
-2.6153016 2.7569628 -0.074304193 0
-2.5660191 2.7596745 -0.08617235 0
1.0340528 2.7387376 -0.036780603 0
2.3328986 2.7201867 -0.022032212 0
4.4781399 2.7129097 -0.00392434 0
5.5119977 2.7085629 -0.049800932 0
5.874454 2.7025394 -0.036025256 0
5.9222498 2.7052863 -0.039049484 0
-10.049084 2.9912324 -0.077444851 0
-11.008751 3.04968 -0.052187886 0
-10.043362 3.0178971 -0.035233166 0
-11.257983 3.1174655 -0.062281296 0
-5.9025674 3.3755279 -0.063526049 0
-5.8804913 3.379283 -0.060873587 0
-5.8483496 3.4042356 -0.041277058 0
-11.268369 3.8701839 -0.046113998 0
-11.275003 3.9379294 -0.067386955 0
-10.020341 3.9806757 -0.056217611 0
-5.105978 3.9643002 -0.071292698 0
-6.4555473 4.1788182 -0.053891946 0
-4.4277754 4.4460459 -0.055762451 0
-5.3415785 4.9899721 -0.055082042 0
6.6924429 5.1883931 -0.057932481 0
6.7578378 5.1744399 -0.060640588 0
6.8373241 5.1638069 -0.031377356 0
6.9275818 5.1796975 -0.054742426 0
-5.0097423 5.2536197 -0.053447377 0
-4.9863081 5.2470107 -0.045810383 0
7.0868158 5.2251024 -0.055022892 0
7.1092181 5.2397132 -0.05446285 0
6.4542575 5.3529148 -0.022715222 0
6.3821554 5.4573884 -0.035549998 0
6.4089041 5.427372 -0.04374364 0
7.2800088 5.4448061 -0.062275339 0
7.3003287 5.4774709 -0.0066068694 0
6.3552847 5.5343137 -0.010715712 0
7.3227458 5.5572629 -0.047621228 0
6.344943 5.6756544 -0.039742231 0
7.338315 5.6366796 -0.038739391 0
6.3834634 5.8521676 -0.020352378 0
6.4353056 5.9626579 -0.036615685 0
6.4985847 6.0235562 -0.012371296 0
6.5532331 6.0717678 -0.049123254 0
-3.1494064 6.1815734 -0.052907843 0
-3.052078 6.1702976 -0.051045567 0
-2.9267268 6.1693687 -0.076501608 0
6.6238327 6.1101413 -0.055430502 0
6.7134161 6.1406698 -0.06006214 0
-3.3011782 6.247262 -0.085740782 0
-3.246675 6.2215538 -0.0042935321 0
-3.402003 6.335206 -0.056326285 0
-2.6841805 6.3051553 -0.081927508 0
-3.4921417 6.477798 -0.038823795 0
-2.570766 6.4500818 -0.070843793 0
-3.5148308 6.5581632 -0.051062338 0
-3.4986162 6.5167422 -0.060212038 0
-3.5386004 6.6354032 -0.011515919 0
-2.5293388 6.6361942 -0.064513959 0
-3.5230811 6.7168016 -0.073247194 0
-2.5704031 6.8599105 -0.048230242 0
-3.4029307 6.9666891 -0.024006404 0
-2.6040404 6.9369602 -0.053850576 0
-2.5804901 6.9083099 -0.01235231 0
-3.321492 7.0501747 -0.031302508 0
-3.2903128 7.0781803 -0.048221234 0
-2.7297826 7.0630403 -0.075579964 0
-3.2176688 7.113843 -0.046923663 0
11.312163 7.4729047 -0.099459603 0
11.339669 9.1848917 -0.088631846 0
11.279185 9.2050457 -0.0010921732 0
11.324662 9.2390881 -0.049821895 0
-11.233872 9.3685913 -0.036530517 0
-6.2388716 9.3292522 -0.0018729356 0
11.181772 -7.73839 0.019821744 0
11.20094 -7.6945915 0.085299969 0
-11.352241 -7.5401711 0.059287429 0
-5.5772376 -7.5568032 0.051978756 0
-11.358995 -7.4940281 0.070526436 0
2.0541968 -6.382709 0.085391901 0
1.2927713 -6.2095051 0.084207088 0
1.3551105 -6.275485 0.026638575 0
2.3603435 -6.1538372 0.052653603 0
2.406702 -6.1040354 0.072042435 0
2.4597623 -6.0297451 0.069816224 0
-4.7435288 -5.9426126 0.058909256 0
-3.7714658 -5.9596863 0.036206324 0
2.4714861 -5.9546337 0.032371167 0
2.500591 -5.9292374 0.031739123 0
-3.7721121 -5.8575101 0.0078516416 0
2.485261 -5.8744264 0.078499198 0
2.5120506 -5.7605925 0.08641398 0
1.1008873 -5.5586867 0.0042876266 0
-3.7584209 -5.4344053 0.040824711 0
1.4405011 -5.1337714 0.062779397 0
2.1670299 -5.1078968 0.059426121 0
-3.7650738 -5.0288692 0.038028445 0
1.4991827 -5.0831981 0.042176388 0
1.5420775 -5.0451469 0.06035861 0
1.6275632 -5.0208921 0.05348454 0
2.0291572 -5.0515952 0.0764971 0
-4.7597122 -4.9586697 0.044147633 0
-4.6721687 -4.9603834 0.037847284 0
-4.4193125 -4.9679451 0.0056235334 0
-4.3613596 -4.9547338 0.021349926 0
-3.9837501 -4.9510679 0.018732913 0
-3.8381398 -4.9589291 0.055482611 0
-3.7677524 -4.9523644 0.028318299 0
5.2507501 -4.9409194 0.084770396 0
5.3127475 -4.948586 0.065895364 0
5.4287395 -4.9864287 0.069222078 0
5.0672159 -4.8082361 0.063852273 0
5.1402669 -4.8817143 0.061475292 0
4.975174 -4.6826286 0.078588314 0
4.9486427 -4.58915 0.018230895 0
5.9456048 -4.5004539 0.051694676 0
5.9286594 -4.4164176 0.017345246 0
4.9699502 -4.3412862 0.043446749 0
5.0051632 -4.329402 0.077147141 0
5.9260812 -4.3736324 0.058570109 0
4.9830503 -4.2995291 0.022313222 0
5.0285487 -4.2359896 0.062297806 0
5.2835078 -4.0025282 0.072027326 0
5.6282988 -4.0115967 0.04609219 0
5.7218895 -4.083005 0.073669516 0
5.3458204 -3.9870071 0.065081105 0
-4.0582776 -3.1259592 0.064170428 0
-4.2138906 -3.0959229 0.053610202 0
-4.1633291 -3.08922 0.0062885969 0
-4.0446625 -3.0811739 0.040183645 0
1.2183943 -2.9279561 0.020290952 0
-7.9120798 -2.8113694 0.01676777 0
-7.8679385 -2.8205707 0.067758024 0
-6.8834596 -2.8128452 0.049733035 0
-2.7686958 -2.8640974 0.03476093 0
-2.6106567 -2.8639073 0.078824237 0
-2.4884892 -2.8629289 0.010210666 0
1.1876048 -2.8922567 0.089023337 0
1.2117455 -2.8868635 0.070865914 0
-7.8664169 -2.7803388 0.042972524 0
-6.8797383 -2.793411 0.015761867 0
-2.7791343 -2.781292 0.08051078 0
-2.6297789 -2.7602489 0.041005578 0
-0.78893805 -2.7729654 0.0067331344 0
-0.47536135 -2.7847719 0.052385136 0
1.0778227 -2.7907977 0.037717648 0
1.1966258 -2.7721026 0.050436214 0
1.2139525 -2.7523878 0.05896455 0
7.6681805 -2.1509843 0.031780224 0
7.7776413 -2.1332529 0.042055748 0
7.8136945 -2.1278667 0.062671848 0
7.1637278 -2.0526869 0.090708688 0
6.9832058 -1.9377241 0.0022341991 0
7.0228891 -1.9692045 0.066820718 0
6.9321404 -1.8812622 0.091892757 0
6.7901192 -1.7121919 0.041534808 0
6.8700805 -1.7961118 0.037141703 0
-4.027575 -1.6469254 0.037164103 0
-2.6207647 -1.6682594 0.034171104 0
6.7254086 -1.5941384 0.045412768 0
8.5281839 -1.5788379 0.018439662 0
8.5897074 -1.3898602 0.066154771 0
-8.6467371 -1.2283748 0.037775725 0
-8.8147297 -1.1778386 0.02556622 0
-8.7901831 -1.1915621 0.024427168 0
-8.2715807 -1.1115307 0.057224635 0
-2.764492 -1.1220669 0.078763105 0
4.6842499 -1.1019623 0.026071679 0
4.7083268 -1.1017835 0.021375928 0
6.6395621 -1.1323051 0.042597312 0
-8.9237576 -1.068388 0.070423305 0
-2.7611959 -1.0227786 0.032702241 0
-1.465912 -1.0623153 0.036845189 0
4.6796336 -1.080604 0.043049004 0
4.7166386 -1.0975645 0.048282035 0
6.6548009 -1.0214372 0.065340661 0
-2.7572873 -0.90320277 0.016706975 0
-2.6310246 -0.90909308 0.063197419 0
-1.4882665 -0.91422248 0.09829127 0
-1.2314172 -0.92238474 0.05091548 0
1.2235496 -0.9380331 0.062854216 0
2.9676175 -0.96842325 0.088348858 0
3.0227311 -0.94677025 0.097585216 0
4.0184927 -0.9221828 0.050672717 0
4.6798868 -0.94643736 0.01959426 0
6.6544628 -0.95932239 0.052148551 0
-2.7452269 -0.86793041 0.053075872 0
-2.6211824 -0.89613366 0.062890418 0
4.027668 -0.8687703 0.041466974 0
6.7147627 -0.80244589 0.070858344 0
-9.0851088 -0.71042275 0.0089195445 0
-4.149992 -0.71166086 0.023805048 0
-4.0233378 -0.71304655 0.036400858 0
6.7395844 -0.75675714 0.085249707 0
8.5479889 -0.77966064 0.048534483 0
-9.0895462 -0.67943829 0.053722147 0
-8.0955505 -0.66948748 0.066590734 0
-7.008976 -0.63813108 0.06252744 0
-6.9600992 -0.61737555 0.012534779 0
-6.8131142 -0.61579525 0.07026124 0
-6.7883167 -0.61351645 0.040249333 0
-4.0405712 -0.64090782 0.047280129 0
6.7678528 -0.66551065 0.053088322 0
6.8151541 -0.61933029 0.048162043 0
8.4787302 -0.64274079 0.056296382 0
-9.0575018 -0.58296204 0.052803624 0
-8.1524477 -0.52168465 0.044969372 0
6.7942028 -0.59837461 0.016438615 0
6.8176465 -0.57316697 0.015779927 0
8.4737902 -0.5986073 0.060204588 0
-9.0292892 -0.49422503 0.065683611 0
-8.9778528 -0.42247134 0.069043688 0
6.8960247 -0.48682213 0.062672995 0
8.3274174 -0.46234375 0.033517715 0
-8.8738594 -0.32447401 0.049832664 0
7.053864 -0.35902089 0.072756186 0
-8.8176937 -0.29394966 0.04779958 0
7.195694 -0.29647532 0.08333078 0
7.2431564 -0.26366073 0.050228085 0
7.7840672 -0.20022026 0.017562222 0
7.8369622 -0.20909856 0.038767546 0
7.5919595 -0.18550824 0.059035331 0
7.6792402 -0.18702208 0.011176705 0
3.0381527 0.037415531 0.058209468 0
3.2413912 0.054233313 0.09298858 0
3.3359017 0.063436091 0.042351406 0
4.027431 0.058360741 0.044169698 0
-7.7121129 0.28288078 0.075029813 0
-5.4278011 0.79188794 0.050290965 0
-5.3173394 0.78195399 0.03665344 0
-5.1527319 0.78528214 0.058497481 0
-5.093297 0.78999245 0.078386322 0
-5.3958659 0.80396533 0.046830747 0
-5.1491122 0.80476189 0.092634171 0
-5.0317202 0.81173098 0.053183451 0
5.6402869 0.89899832 0.032816689 0
0.33505964 0.98333448 0.015752871 0
3.6137915 0.94174713 0.026649453 0
5.2188482 0.93279636 0.053953521 0
5.3134193 0.90574855 0.008912228 0
5.89465 0.9776243 0.042574979 0
5.9163327 0.95954192 0.025638223 0
-5.6505909 1.045752 0.019807402 0
-4.8030486 1.0165327 0.01650179 0
-4.7881327 1.0317318 0.085426018 0
-2.8357778 1.0128161 0.04214165 0
-2.7138469 1.0092653 0.056128923 0
-5.6682534 1.1064267 0.099159598 0
-4.7439017 1.1794057 0.026154712 0
-5.7033234 1.2352014 0.024842409 0
-4.7311487 1.2484332 0.03877173 0
-2.8198183 1.2580726 0.04816667 0
-5.7074986 1.314446 0.091446184 0
-4.73067 1.3333477 0.084361218 0
-4.7656264 1.4560075 0.049481917 0
-4.8507547 1.5935408 0.048113011 0
-4.7911334 1.5118289 0.039502703 0
-5.5572805 1.6502802 0.035851937 0
-4.9225979 1.6617239 0.057327881 0
-4.8704052 1.6169415 0.073094718 0
-5.3495874 1.7612982 0.0087455781 0
-5.2798796 1.7703264 0.098068044 0
-7.8261366 2.144664 0.050966404 0
-7.7622075 2.1405463 0.028512299 0
-7.6932192 2.1342928 0.018608809 0
-2.8216729 2.6795144 0.064219095 0
5.7992296 2.698112 0.048933506 0
5.8905954 2.6973686 0.083422661 0
5.9239287 2.6818233 0.059400767 0
-2.8138499 2.7415986 0.028352464 0
-2.7882197 2.7567194 0.053833444 0
-2.6308856 2.7540517 0.081354901 0
-2.5766988 2.7582097 0.093177311 0
1.5378404 2.7375882 0.0036830306 0
5.8909693 2.7013507 0.062363207 0
5.9239712 2.704746 0.072808929 0
-10.999758 3.0441222 0.032911472 0
-10.038832 3.0307558 0.066819847 0
-11.260013 3.1169672 0.020654678 0
-5.9067268 3.37328 0.025863729 0
-5.8798122 3.3796635 0.049563367 0
-5.8496861 3.4072759 0.033263333 0
-11.266551 3.8611915 0.026100075 0
-11.265903 3.9269822 0.060281534 0
-10.025219 3.9899578 0.017985784 0
-5.1073947 3.9594018 0.045594674 0
-10.997712 4.0076327 0.09485615 0
-6.4556398 4.1779127 0.040411212 0
-4.425694 4.4611368 0.04414016 0
-4.4316549 4.50315 0.030635182 0
-5.3415771 4.9944844 0.050140861 0
-4.9234238 5.1702895 0.030789439 0
6.7892733 5.1696649 0.0837432 0
6.8419333 5.1679053 0.073367402 0
6.9396992 5.179708 0.042535413 0
-5.0080891 5.2571435 0.058845162 0
-4.9927769 5.2520661 0.047517315 0
7.074059 5.2275705 0.028450986 0
7.1213989 5.2501221 0.049990885 0
6.4327507 5.3814664 0.061183412 0
6.3791485 5.4691849 0.061773043 0
6.4160118 5.4135504 0.050154611 0
7.2889175 5.463625 0.089699782 0
6.3581529 5.5357299 0.058292676 0
7.3247638 5.5517797 0.046539512 0
6.3455782 5.6751194 0.036682732 0
7.3405385 5.6394114 0.063478924 0
6.3551412 5.7567577 0.089200549 0
6.4269118 5.9447427 0.057796396 0
6.53058 6.0544424 0.061088383 0
-3.2038648 6.1977081 0.00043872371 0
-3.1661947 6.1886992 0.063103527 0
-3.041034 6.1677933 0.04981523 0
-2.9656503 6.1711617 0.065119252 0
6.5995798 6.1083012 0.07730446 0
6.6309328 6.113843 0.046080448 0
6.7681103 6.1503601 0.07840611 0
-3.236588 6.2170491 0.089046963 0
-3.4152298 6.3544369 0.049248412 0
-2.6606817 6.3296747 0.041842092 0
-2.5677588 6.4573169 0.044797294 0
-3.5106938 6.5433474 0.058880698 0
-2.5307457 6.5406837 0.056413848 0
-3.521554 6.6436262 0.057430156 0
-2.5286973 6.6326833 0.040932894 0
-2.5772948 6.8826189 0.081331685 0
-2.6534715 6.996335 0.032846689 0
-2.5769608 6.9042373 0.09413974 0
-3.3223627 7.042592 0.085934989 0
-3.2929912 7.0750694 0.061275192 0
-2.7501204 7.0760674 0.059514355 0
-2.6659758 7.0088272 0.011286793 0
-3.2312727 7.1133037 0.09346918 0
-2.820509 7.1224136 0.065529868 0
-2.7928061 7.1043949 0.070689537 0
11.268793 9.2218761 0.015893757 0
11.316716 9.2491693 0.055322938 0
-11.236763 9.3632908 0.036535271 0
11.179454 -7.7067766 0.18833822 0
11.210754 -7.7301621 0.1062541 0
-11.336485 -7.5581903 0.14093146 0
-11.356779 -7.3095369 0.12757437 0
1.3781602 -6.3085003 0.14460246 0
1.4644351 -6.3244338 0.1088834 0
1.3757906 -6.2746658 0.16584119 0
2.3822 -6.1418514 0.18345091 0
2.4180274 -6.1306262 0.1811686 0
2.3984184 -6.0961108 0.12251904 0
2.4356546 -6.0779757 0.11791258 0
-11.313922 -5.9849663 0.19942605 0
-4.7482028 -5.9209404 0.15945043 0
-3.7728024 -5.9526143 0.16376555 0
2.4859958 -5.9538031 0.15640329 0
2.4856603 -5.8744383 0.19998375 0
2.5341365 -5.8930092 0.13897948 0
2.5120058 -5.7001824 0.19034182 0
1.1014 -5.5518093 0.10543788 0
-3.7571552 -5.4116292 0.16957118 0
1.3426149 -5.223155 0.14151254 0
1.3806131 -5.1683426 0.15099236 0
1.4345121 -5.1340303 0.17220195 0
2.1745028 -5.1095114 0.16175891 0
-3.7609003 -5.0664511 0.14864221 0
1.4956417 -5.081212 0.16835888 0
1.5462291 -5.0470223 0.16884373 0
1.6241589 -5.0279961 0.13789155 0
1.7542222 -5.0099092 0.10933255 0
1.8972421 -5.0037689 0.13500381 0
-4.7310901 -4.9522352 0.15418078 0
-4.6371107 -4.9592705 0.14113185 0
-3.9776666 -4.9485745 0.12355949 0
-3.8633399 -4.9413662 0.13683298 0
-3.7614346 -4.9553885 0.15155913 0
5.2422528 -4.9419088 0.13245693 0
5.3437991 -4.9660115 0.16754431 0
5.4283218 -4.9858017 0.17314166 0
5.5433993 -4.9762163 0.16449478 0
5.0782156 -4.8172064 0.17660946 0
5.1326337 -4.8711982 0.18949217 0
5.2020092 -4.8909268 0.19925514 0
4.9660945 -4.6416135 0.16432194 0
5.9451504 -4.4262085 0.14111435 0
4.9795899 -4.3350835 0.15245652 0
5.913074 -4.3560185 0.14483336 0
5.0353723 -4.2300291 0.14907774 0
5.7684865 -4.1246934 0.15557812 0
5.3526859 -4.0073977 0.13628796 0
5.5785608 -4.0281315 0.15503946 0
5.6483488 -4.0307703 0.15973355 0
5.3331361 -3.9946182 0.16520652 0
5.4055638 -3.9773138 0.16680497 0
-4.056551 -3.1146998 0.14318074 0
-4.203732 -3.0953057 0.14879237 0
-4.1605186 -3.0911765 0.14878447 0
-4.0479159 -3.0759146 0.15721145 0
-2.7793627 -2.9014387 0.1324333 0
1.2235707 -2.9271574 0.11381739 0
-7.909688 -2.8093312 0.13778907 0
-7.875525 -2.815841 0.16167821 0
-7.0442162 -2.8344421 0.15054178 0
-2.7723851 -2.8678167 0.15044944 0
-2.623486 -2.8690259 0.17440447 0
-2.5077748 -2.8593171 0.16010807 0
1.0909147 -2.8799469 0.13240165 0
1.1699855 -2.8912177 0.18061864 0
1.2116519 -2.8868191 0.17996144 0
-7.8634052 -2.7732842 0.13437738 0
-7.0100398 -2.7121425 0.10487322 0
-6.877377 -2.7930956 0.13194078 0
-2.6425998 -2.7313638 0.1477403 0
-0.78946447 -2.7807651 0.13876858 0
-0.47616744 -2.7787452 0.14033505 0
1.0701988 -2.7900035 0.15758437 0
1.2128389 -2.7524583 0.16376269 0
-2.6214719 -2.1036952 0.13403727 0
7.6496863 -2.1608152 0.12081601 0
7.7596378 -2.136451 0.13878439 0
7.8038473 -2.1315801 0.15336783 0
6.9878631 -1.9415921 0.19030118 0
7.0245452 -1.97262 0.13129328 0
6.8873568 -1.8153507 0.13254789 0
6.7956667 -1.719328 0.16316956 0
8.5145044 -1.6026032 0.14023435 0
6.7252893 -1.5876412 0.17080006 0
8.5910072 -1.3850958 0.15451942 0
-8.6129532 -1.2308468 0.12408394 0
-8.826767 -1.1689568 0.1305307 0
-8.3358335 -1.1535078 0.16853139 0
-2.761466 -1.1125398 0.18364699 0
4.6983743 -1.105135 0.18545702 0
4.7009468 -1.1042123 0.15873386 0
6.6380486 -1.1441272 0.16331527 0
-8.2558289 -1.0975794 0.11340654 0
-2.6390066 -1.0222884 0.1361341 0
-1.4672093 -1.0468295 0.14585298 0
-0.92759943 -1.0391401 0.10322034 0
4.6879792 -1.0759735 0.15798885 0
4.7077808 -1.0873154 0.13560864 0
6.6547203 -1.0092926 0.18851888 0
-9.0057678 -0.97383809 0.19796354 0
-2.7947845 -0.90076298 0.13237432 0
-2.6189411 -0.91042215 0.15272042 0
-2.5846477 -0.90400076 0.19796717 0
-1.2455276 -0.92482996 0.15154107 0
1.2396972 -0.937392 0.17019626 0
2.3247218 -0.93991643 0.10961222 0
2.9882216 -0.95114422 0.11009641 0
3.0451698 -0.95078695 0.10021187 0
4.0344458 -0.92127609 0.13157123 0
4.68221 -0.94854611 0.13973387 0
6.6589479 -0.97485852 0.14493152 0
-2.7497993 -0.87945497 0.14663768 0
-2.6174669 -0.88724834 0.1461411 0
4.0328517 -0.87284762 0.14101648 0
