# .PCD v0.7 - Point Cloud Data file format
VERSION 0.7
FIELDS x y z intensity
SIZE 4 4 4 4
TYPE F F F F
COUNT 1 1 1 1
WIDTH 1384
HEIGHT 1
VIEWPOINT 0 0 0 1 0 0 0
POINTS 1384
DATA ascii
-10.498041 0.51210606 -0.4162561 0
-10.267065 0.45300326 -0.41990349 0
-10.096827 0.53413093 -0.41939723 0
-9.9061804 0.54014498 -0.42099223 0
-9.7189875 0.44633117 -0.42171738 0
-9.485486 0.47824964 -0.42253581 0
-9.2905951 0.51302415 -0.42633694 0
-9.1174116 0.52961981 -0.42775202 0
-8.9146881 0.49686822 -0.42966616 0
-8.7274752 0.51206797 -0.43166193 0
-8.5082598 0.51751071 -0.43297133 0
-8.2800827 0.45224968 -0.43325996 0
-8.0808563 0.48445836 -0.43519706 0
-7.8870282 0.55543458 -0.4282335 0
-7.7029333 0.49220902 -0.42800313 0
-7.4870625 0.50928277 -0.45729044 0
-7.2726555 0.48581392 -0.45862073 0
-7.1172976 0.45970964 -0.44574964 0
-6.9177537 0.50719082 -0.44260153 0
-6.6745005 0.50390869 -0.46640643 0
-6.5145426 0.49824381 -0.45827606 0
-6.2705598 0.4779892 -0.45164251 0
-6.124578 0.49205819 -0.46608204 0
-5.8678322 0.46577692 -0.46226382 0
-5.7194843 0.48233292 -0.46568725 0
-5.4903226 0.50548673 -0.47126129 0
-5.3327618 0.48562419 -0.46566275 0
-5.1003246 0.50941294 -0.47679484 0
-4.8770661 0.47082427 -0.47281626 0
-4.7222595 0.4820033 -0.47181052 0
-4.5094976 0.48682433 -0.47606263 0
-4.2971454 0.50426304 -0.47913656 0
-4.0611873 0.4964968 -0.48191282 0
-3.8902109 0.53078628 -0.47670957 0
-3.6951969 0.53073519 -0.47877178 0
-3.5064003 0.51923764 -0.48395973 0
-3.3059123 0.4777534 -0.48790601 0
-3.0997055 0.50491732 -0.48498535 0
-2.8786731 0.48405358 -0.48719779 0
-2.6896181 0.4903751 -0.48646227 0
-2.5072417 0.48221403 -0.48752961 0
-2.2910051 0.51308239 -0.48769698 0
-2.0753663 0.47177085 -0.48880544 0
-1.8788927 0.53619206 -0.48897919 0
-1.7033967 0.51761562 -0.49180639 0
-1.493332 0.53833473 -0.48966607 0
-1.2990209 0.47672406 -0.4909476 0
-1.0680852 0.48341095 -0.48903221 0
-0.88115168 0.48220316 -0.50038213 0
-0.69905937 0.5122115 -0.49104592 0
-0.43899736 0.49813735 -0.5018298 0
-0.27407935 0.49691138 -0.49005246 0
-0.011211276 0.50199211 -0.50012249 0
0.0037794113 0.52537733 -0.49795157 0
0.28609264 0.51415217 -0.49897051 0
0.47903448 0.51674521 -0.50016093 0
0.77763289 0.55919683 -0.50160003 0
0.92185515 0.47984919 -0.50377411 0
1.0786475 0.50955737 -0.49194285 0
1.2713786 0.48968944 -0.50413573 0
1.4957032 0.48261255 -0.50201404 0
1.7350793 0.47578976 -0.50395328 0
1.8886633 0.50154465 -0.50098032 0
2.1032484 0.53288722 -0.51126724 0
2.2821753 0.49950048 -0.49731323 0
2.4620516 0.51633555 -0.504574 0
2.6684744 0.49679083 -0.5081259 0
2.8973453 0.49489304 -0.5036478 0
3.1044285 0.50667065 -0.52057081 0
3.3563662 0.4616161 -0.51400363 0
3.5350459 0.47552359 -0.51949382 0
3.7127485 0.49489847 -0.51794517 0
3.9087868 0.49250942 -0.52005231 0
4.0974054 0.50688177 -0.52145231 0
4.2876558 0.49453655 -0.51958877 0
4.4853539 0.49125415 -0.52515292 0
4.7100949 0.50875109 -0.52488941 0
4.9017615 0.51788008 -0.52730125 0
5.1329932 0.50927299 -0.52955675 0
5.3092833 0.48903427 -0.53387111 0
5.4868383 0.49587312 -0.53247112 0
5.6978388 0.51564866 -0.53064132 0
5.8831296 0.50065202 -0.5362615 0
6.0751095 0.51101363 -0.5395962 0
6.2823095 0.49841616 -0.54034621 0
6.5056 0.49358609 -0.5429312 0
6.6932726 0.48777524 -0.54238307 0
6.8820887 0.49335098 -0.54325354 0
7.0894771 0.48369506 -0.54535234 0
7.2997994 0.47488523 -0.54568309 0
7.4951038 0.49595276 -0.54698998 0
7.7211971 0.50988859 -0.54665399 0
7.8881979 0.52625096 -0.55517948 0
8.0754004 0.49441165 -0.55428672 0
8.3069048 0.49959758 -0.55399513 0
8.4756985 0.48916855 -0.54926407 0
8.6932421 0.49000746 -0.55635417 0
8.8934269 0.49933046 -0.55876476 0
9.0748291 0.47375587 -0.54655915 0
9.3095245 0.48955229 -0.56177527 0
9.4937057 0.5058803 -0.5648545 0
9.6971827 0.50104332 -0.56336653 0
9.8961153 0.52054834 -0.56413841 0
10.092501 0.48582569 -0.55507696 0
10.268901 0.51996475 -0.56425434 0
10.547792 0.49512991 -0.56847823 0
10.723616 0.54210043 -0.57254446 0
10.966425 0.50670487 -0.56661135 0
11.111112 0.51670671 -0.56818688 0
11.262798 0.49236569 -0.48920774 0
-11.26625 0.70629972 -0.41685882 0
-11.069824 0.74133587 -0.41458666 0
-10.902374 0.63537735 -0.41475129 0
-10.665727 0.71122533 -0.41682279 0
-10.481285 0.727808 -0.41941863 0
-10.304824 0.69962829 -0.42137519 0
-10.029116 0.78321511 -0.42308995 0
-9.8660259 0.72196621 -0.42358255 0
-9.6925497 0.6611048 -0.42459846 0
-9.4659538 0.68558246 -0.42753962 0
-9.2529793 0.76612824 -0.42960715 0
-9.0673618 0.70691049 -0.43170398 0
-8.8895273 0.6476388 -0.43151069 0
-8.6814337 0.70242983 -0.43451455 0
-8.4612055 0.74200565 -0.43792182 0
-8.2990961 0.69683498 -0.43755576 0
-8.0921621 0.63897163 -0.43980753 0
-7.8855276 0.75199324 -0.41301331 0
-7.7127614 0.69876647 -0.43724254 0
-7.4908347 0.72036248 -0.44852248 0
-7.2672167 0.63621497 -0.46964276 0
-7.1471829 0.69897491 -0.46319214 0
-6.9176517 0.68311232 -0.45796323 0
-6.6729679 0.70858145 -0.47073543 0
-6.5241933 0.7160778 -0.4779996 0
-6.3098397 0.7104969 -0.46057904 0
-6.1192727 0.67898959 -0.47564563 0
-5.9751101 0.76129669 -0.47571445 0
-5.7033396 0.70512694 -0.47656047 0
-5.4494939 0.7126283 -0.45960858 0
-5.2605162 0.73801458 -0.45675847 0
-5.0806289 0.72661996 -0.45711547 0
-4.8939362 0.66766655 -0.47572902 0
-4.6794691 0.71782744 -0.4781262 0
-4.4940634 0.70762491 -0.47226518 0
-4.2853312 0.70694017 -0.48045829 0
-4.0801525 0.72316217 -0.47834796 0
-3.8861501 0.69970506 -0.47886646 0
-3.6771655 0.71344239 -0.48168182 0
-3.4640634 0.7269659 -0.48289934 0
-3.2911775 0.69274604 -0.48881584 0
-3.0831959 0.72656453 -0.48531604 0
-2.8872876 0.68561518 -0.48709321 0
-2.6991637 0.66551745 -0.4855884 0
-2.5101156 0.68084997 -0.48917478 0
-2.2702951 0.70002049 -0.48844478 0
-2.0901582 0.7141192 -0.49032301 0
-1.8986672 0.73144066 -0.49269652 0
-1.6754271 0.69253927 -0.49382266 0
-1.492435 0.72526133 -0.4933559 0
-1.2939905 0.67286199 -0.49388272 0
-1.0961125 0.70545268 -0.49137264 0
-0.88058507 0.69110692 -0.49883932 0
-0.72267073 0.68135267 -0.49229783 0
-0.44775656 0.69771928 -0.50292301 0
-0.33147299 0.69068789 -0.49272048 0
-0.074234009 0.69819176 -0.501019 0
0.11644304 0.71022868 -0.49710491 0
0.29955083 0.70540917 -0.50151247 0
0.49578229 0.71002585 -0.50320941 0
0.73073435 0.73541021 -0.50224745 0
0.95271784 0.70621669 -0.50391304 0
1.0842193 0.70073253 -0.49381679 0
1.3089385 0.70794994 -0.51056886 0
1.5292972 0.72676367 -0.50008065 0
1.7392344 0.68002653 -0.50446564 0
1.9200337 0.71806574 -0.50066197 0
2.1320679 0.70552009 -0.50707644 0
2.2867522 0.70152473 -0.50249714 0
2.5028846 0.71412736 -0.50802958 0
2.643352 0.72921157 -0.50819242 0
2.910054 0.70019197 -0.50958651 0
3.0897641 0.69423908 -0.52679235 0
3.3166065 0.6676926 -0.517699 0
3.5022235 0.6889444 -0.5194785 0
3.7040007 0.68793869 -0.51600266 0
3.9225693 0.74218196 -0.524212 0
4.0885921 0.68688333 -0.51914132 0
4.3003526 0.71253139 -0.52041662 0
4.5237894 0.71212697 -0.52296013 0
4.7250996 0.70616269 -0.52830505 0
4.9173074 0.69983029 -0.53108019 0
5.0944347 0.69867498 -0.53133625 0
5.280786 0.66734838 -0.53314203 0
5.4946289 0.69957834 -0.5331037 0
5.7139416 0.71202767 -0.53428721 0
5.9062147 0.70083654 -0.54011357 0
6.0955567 0.71791202 -0.53993255 0
6.2746444 0.6727159 -0.54070133 0
6.4745507 0.72161674 -0.54320061 0
6.6908712 0.69480848 -0.54573071 0
6.9109721 0.69446033 -0.54613948 0
7.0898314 0.67659771 -0.54719019 0
7.3091054 0.68122751 -0.55004305 0
7.5117626 0.71605372 -0.54860723 0
7.7063708 0.6950562 -0.54810965 0
7.9104733 0.70127279 -0.55404359 0
8.1200628 0.69920313 -0.5559994 0
8.3093615 0.71727258 -0.55320466 0
8.4961443 0.70367384 -0.55967003 0
8.677146 0.67528051 -0.55908209 0
8.9087696 0.70098454 -0.55595654 0
9.1009159 0.69871289 -0.55866951 0
9.3243523 0.68221027 -0.5611884 0
9.4787359 0.6883173 -0.56390393 0
9.6890583 0.71384001 -0.56698966 0
9.8989506 0.70072836 -0.55890304 0
10.119279 0.6822809 -0.56942314 0
10.252061 0.69577235 -0.56970268 0
10.532082 0.70207053 -0.57236677 0
10.690827 0.74702799 -0.57107484 0
10.91422 0.71863037 -0.57443357 0
11.096977 0.71103764 -0.57317781 0
11.262357 0.68838197 -0.48856995 0
-11.293858 0.88215899 -0.42803743 0
-11.063281 0.86913878 -0.4225826 0
-10.894049 0.85102761 -0.41639933 0
-10.714439 0.92662418 -0.42095199 0
-10.505256 0.90804112 -0.42054844 0
-10.249047 0.84527045 -0.42205286 0
-10.085938 0.89949936 -0.42308751 0
-9.8885736 0.94813704 -0.42587367 0
-9.6792974 0.89320612 -0.426707 0
-9.4832001 0.8666051 -0.4298093 0
-9.2889814 0.95927155 -0.43346518 0
-9.1061678 0.91003829 -0.43413958 0
-8.8999147 0.89151502 -0.43569484 0
-8.7170458 0.88493347 -0.4360961 0
-8.5152063 0.92671561 -0.43908364 0
-8.3004608 0.92166394 -0.44054306 0
-8.1138639 0.89447457 -0.44180897 0
-7.8761296 0.92492914 -0.41094816 0
-7.7123694 0.8955642 -0.43492761 0
-7.5468278 0.89629614 -0.46419036 0
-7.2270904 0.88310075 -0.47344109 0
-7.1184387 0.88020563 -0.47904637 0
-6.9180584 0.92634147 -0.45974833 0
-6.7149076 0.88443649 -0.47493088 0
-6.5105219 0.92268455 -0.4787825 0
-6.3152862 0.89657879 -0.47053352 0
-6.089529 0.93716145 -0.47647378 0
-5.9226775 0.93007827 -0.47850958 0
-5.6786189 0.85274708 -0.48025 0
-5.5071878 0.83428299 -0.4558053 0
-5.3240695 0.80334681 -0.40650392 0
-5.0366488 0.82272124 -0.43524763 0
-4.8805075 0.89868486 -0.44487485 0
-4.6926289 0.89384383 -0.47268462 0
-4.5067205 0.89534718 -0.48182398 0
-4.2944579 0.89964551 -0.48114023 0
-4.0661383 0.88605326 -0.48333365 0
-3.8769188 0.87121993 -0.48094076 0
-3.6753392 0.88984179 -0.48429468 0
-3.4702885 0.90496331 -0.48615384 0
-3.2954323 0.88531148 -0.48713547 0
-3.0798454 0.92841023 -0.48693201 0
-2.869343 0.91167355 -0.4814243 0
-2.6924412 0.90655005 -0.47102958 0
-2.480588 0.94442749 -0.46402353 0
-2.2644846 0.94676524 -0.46100906 0
-2.1058698 0.94535005 -0.45222995 0
-1.8801888 0.92848706 -0.4657065 0
-1.6937511 0.9183923 -0.46262997 0
-1.5070316 0.92436445 -0.46315053 0
-1.2764124 0.93628132 -0.46021265 0
-1.0943737 0.94656181 -0.4458999 0
-0.89293385 0.92351371 -0.47658464 0
-0.69560403 0.92394257 -0.45420721 0
-0.45470765 0.94349891 -0.4563413 0
-0.29452667 0.94497883 -0.44917965 0
-0.06862659 0.95598376 -0.44760579 0
0.11138763 0.96010703 -0.45324236 0
0.29377347 0.913526 -0.46831226 0
0.48742238 0.94718707 -0.44736522 0
0.68638498 0.95287591 -0.45640659 0
0.91308767 0.94265485 -0.44669706 0
1.0937656 0.90967274 -0.46305484 0
1.3050177 0.92259729 -0.48466641 0
1.4961897 0.96813256 -0.45770562 0
1.6803994 0.94103205 -0.46420857 0
1.9082832 0.96028638 -0.45522597 0
2.1296515 0.92171633 -0.4789291 0
2.3143971 0.94819921 -0.4667443 0
2.5152793 0.93999481 -0.4585228 0
2.6888075 0.94925648 -0.45955318 0
2.8823431 0.94770759 -0.45804214 0
3.109962 0.93082386 -0.47399363 0
3.2907374 0.94941109 -0.47081468 0
3.4947264 0.93367708 -0.48097059 0
3.7081556 0.94105822 -0.48052949 0
3.8824069 0.95603561 -0.46932974 0
4.1032553 0.92394584 -0.48868641 0
4.2798758 0.93119413 -0.4894847 0
4.4988298 0.94036639 -0.48944956 0
4.6962719 0.92555308 -0.49157321 0
4.9030304 0.93070197 -0.49034232 0
5.102098 0.94363993 -0.48981842 0
5.3020997 0.93026382 -0.48831707 0
5.4959435 0.91591865 -0.49295107 0
5.6966395 0.92084599 -0.50173724 0
5.8894339 0.93819582 -0.50009191 0
6.1023655 0.885409 -0.54309332 0
6.2986383 0.8662312 -0.54445648 0
6.5071602 0.89863384 -0.54651427 0
6.7085981 0.90114504 -0.54818708 0
6.8938942 0.89275759 -0.55116951 0
7.090673 0.93198436 -0.55000782 0
7.293364 0.91295683 -0.55048865 0
7.5080523 0.87445372 -0.54814494 0
7.7067971 0.9179464 -0.54623741 0
7.9039826 0.88888758 -0.55377167 0
8.1226759 0.87225163 -0.55616593 0
8.3178196 0.90920097 -0.55529678 0
8.509284 0.90900534 -0.55771738 0
8.6994553 0.87253046 -0.56272453 0
8.881897 0.90232074 -0.55719692 0
9.0994987 0.91318595 -0.56457388 0
9.2819319 0.90212685 -0.55982774 0
9.4815121 0.88666594 -0.56617725 0
9.7375784 0.92052442 -0.56675589 0
9.9017735 0.89575332 -0.56452423 0
10.079431 0.90210646 -0.57011193 0
10.281837 0.90236598 -0.57225704 0
10.540301 0.90129417 -0.57551229 0
10.685177 0.94863629 -0.57157332 0
10.960459 0.92620158 -0.57597178 0
11.057446 0.877388 -0.57628012 0
11.263382 0.89936846 -0.48649529 0
-11.269247 1.0796096 -0.42570698 0
-11.10447 1.0875955 -0.41969657 0
-10.876322 1.1371399 -0.42057425 0
-10.730705 1.0989139 -0.42136168 0
-10.482668 1.105829 -0.42179558 0
-10.280795 1.0414084 -0.42356801 0
-10.124495 1.0129347 -0.42433214 0
-9.9252892 1.143476 -0.42954689 0
-9.7051449 1.0864416 -0.43079311 0
-9.5071268 1.1142503 -0.4325597 0
-9.3080616 1.0724422 -0.43428317 0
-9.1056995 1.0882169 -0.43408796 0
-8.9271183 1.1473681 -0.43386799 0
-8.713788 1.1439075 -0.43811646 0
-8.487258 1.1249181 -0.43992198 0
-8.3451376 1.0784467 -0.44131437 0
-8.0986423 1.0035651 -0.43935072 0
-7.9015455 1.0914261 -0.42458445 0
-7.7205057 1.0843874 -0.43719557 0
-7.5845194 1.1039391 -0.46832907 0
-7.223155 1.0640804 -0.45532265 0
-7.0999756 1.0749397 -0.46608621 0
-6.9053245 1.1048098 -0.46522528 0
-6.6986222 1.1131685 -0.46703202 0
-6.4782701 1.1315981 -0.47480628 0
-6.3076348 1.127721 -0.47176996 0
-6.1235337 1.0740877 -0.47359046 0
-5.6707964 1.0825641 -0.41238371 0
-4.8155899 1.0305475 -0.44587055 0
-4.735117 1.0970932 -0.45151308 0
-4.4751511 1.0990348 -0.48191336 0
-4.2784996 1.1031388 -0.48371193 0
-4.1360536 1.1222 -0.48428637 0
-3.9068036 1.1206275 -0.48452878 0
-3.6978955 1.1321831 -0.48558426 0
-3.4938803 1.1122701 -0.48496711 0
-3.3039408 1.0900847 -0.48918164 0
-3.0857735 1.1071838 -0.48784283 0
-2.8718696 1.116984 -0.45415166 0
-2.7518973 1.0134909 -0.47109109 0
-2.5107365 1.0051672 -0.45369363 0
-2.33742 1.0074189 -0.46002892 0
-2.0952802 1.0289588 -0.44926345 0
-1.9007423 1.0043949 -0.48774531 0
-1.6598711 1.0013453 -0.48588875 0
-1.4954915 1.0019679 -0.49455187 0
-1.2625276 1.0016977 -0.48092821 0
-0.68797576 1.0006022 -0.43223467 0
5.9370737 1.0979693 -0.50408584 0
6.1038833 1.106846 -0.54287905 0
6.2975712 1.1124986 -0.54635024 0
6.4977865 1.0762202 -0.54498738 0
6.6911316 1.0778141 -0.5497179 0
6.9069009 1.115043 -0.54843622 0
7.0967946 1.0857761 -0.54918194 0
7.29919 1.0958083 -0.5548948 0
7.4840169 1.0950611 -0.55267489 0
7.7026286 1.0819757 -0.5541746 0
7.9032493 1.116075 -0.55593556 0
8.1146526 1.0955293 -0.55717373 0
8.319664 1.1147469 -0.5547623 0
8.5031919 1.0924789 -0.56166732 0
8.686882 1.0993866 -0.56021029 0
8.914361 1.0784544 -0.56503731 0
9.1120129 1.1044321 -0.56745309 0
9.2939644 1.084794 -0.56405008 0
9.4779644 1.0870684 -0.56988531 0
9.6825342 1.131628 -0.56817204 0
9.9079056 1.1062078 -0.56458193 0
10.090189 1.0950667 -0.57250339 0
10.273223 1.1086915 -0.57252669 0
10.477397 1.1055347 -0.57338506 0
10.669971 1.1298389 -0.58070654 0
10.938867 1.1011331 -0.57196385 0
11.080655 1.0816509 -0.57826036 0
11.264498 1.1019516 -0.49390116 0
-11.276366 1.3230717 -0.40772563 0
-11.097026 1.3255575 -0.42801327 0
-10.932783 1.2426655 -0.4236877 0
-10.690282 1.3140098 -0.42335257 0
-10.511524 1.3318855 -0.42538184 0
-10.311383 1.2968389 -0.42665502 0
-10.08119 1.2804135 -0.42923802 0
-9.8986378 1.3015327 -0.43256205 0
-9.7132006 1.2432905 -0.43249246 0
-9.4798565 1.3116891 -0.43696824 0
-9.3099833 1.3603054 -0.43700552 0
-9.0746765 1.2590039 -0.43850225 0
-8.8550072 1.329044 -0.43955508 0
-8.7122984 1.3293402 -0.4412387 0
-8.5286379 1.2604955 -0.4406026 0
-8.2274933 1.3212776 -0.44376373 0
-8.1200409 1.2691355 -0.44502807 0
-7.9754181 1.3680807 -0.44367358 0
-7.7009354 1.3039747 -0.44962272 0
-7.4491282 1.3455377 -0.46163777 0
-7.2834454 1.3113713 -0.45667508 0
-7.0665383 1.3059417 -0.47077963 0
-6.9262948 1.3192427 -0.47152367 0
-6.6937394 1.3256441 -0.46677619 0
-6.4686618 1.2957935 -0.47643131 0
-6.3016396 1.2742741 -0.46806395 0
-6.0858889 1.3435804 -0.46351901 0
-5.849978 1.3291757 -0.46462104 0
-5.7779465 1.3098145 -0.46358559 0
-4.7195868 1.2876894 -0.44742155 0
-4.5194039 1.2907485 -0.48368564 0
-4.3237376 1.2887914 -0.48408023 0
-4.101542 1.3059226 -0.48684296 0
-3.8986614 1.3158064 -0.48819947 0
-3.6976647 1.2738135 -0.48763683 0
-3.4917324 1.2579353 -0.48860851 0
-3.2877164 1.297475 -0.48930177 0
-3.1221299 1.3219875 -0.48987481 0
-2.8751788 1.3181293 -0.46117255 0
5.9423647 1.2965748 -0.50614536 0
6.1185122 1.3148603 -0.54540628 0
6.3248892 1.3275601 -0.548464 0
6.4808502 1.2954258 -0.55064899 0
6.6959963 1.3020548 -0.55276155 0
6.8881278 1.3049765 -0.5517261 0
7.0958872 1.2739999 -0.55128777 0
7.3150296 1.2842026 -0.5545426 0
7.4854779 1.2959633 -0.55487412 0
7.7129774 1.3051153 -0.55814195 0
7.907289 1.3052269 -0.56291509 0
8.1169538 1.3351086 -0.56206918 0
8.3001308 1.2883495 -0.56061548 0
8.5112476 1.2635524 -0.56103361 0
8.6846104 1.2969394 -0.56333977 0
8.8820906 1.2806513 -0.56546116 0
9.1020794 1.3106885 -0.56446171 0
9.29632 1.291608 -0.5721575 0
9.500452 1.2911078 -0.5648399 0
9.6827679 1.3154279 -0.55940443 0
9.8983908 1.3031079 -0.57214481 0
10.112761 1.3005309 -0.57475799 0
10.290374 1.2983356 -0.57669163 0
10.512696 1.3106316 -0.57737869 0
10.666167 1.2977531 -0.57891905 0
10.898357 1.3119081 -0.57919633 0
11.085037 1.2884139 -0.58124518 0
11.268177 1.306831 -0.49545458 0
-11.272069 1.4742252 -0.41665098 0
-11.109591 1.4924706 -0.42488179 0
-10.896067 1.5141677 -0.42199054 0
-10.671496 1.5124918 -0.42344582 0
-10.478249 1.544314 -0.42284903 0
-10.311423 1.4932309 -0.43036023 0
-10.124446 1.4818162 -0.43543154 0
-9.8797865 1.4701027 -0.43149695 0
-9.7070303 1.4532267 -0.43357331 0
-9.5206175 1.5006824 -0.43644688 0
-9.3027706 1.5516636 -0.43973827 0
-9.1048374 1.5225754 -0.44092244 0
-8.9216347 1.4620098 -0.44238275 0
-8.7872744 1.4867034 -0.44440025 0
-8.4786844 1.5126464 -0.44636837 0
-8.3156385 1.4660078 -0.44654793 0
-8.16926 1.4577491 -0.44665104 0
-7.8645039 1.5920222 -0.43304068 0
-7.7087765 1.472466 -0.43714958 0
-7.4989238 1.5204233 -0.46213561 0
-7.3129401 1.5368751 -0.45725378 0
-7.104125 1.4874755 -0.46848032 0
-6.8589516 1.4734323 -0.47456902 0
-6.7196145 1.4956399 -0.46440303 0
-6.5842528 1.4476266 -0.46333975 0
-6.2241864 1.5058112 -0.46614468 0
-6.0604172 1.5788405 -0.46851775 0
-5.8909039 1.4777653 -0.47071129 0
-5.699296 1.5410984 -0.46383214 0
-4.8153644 1.5410036 -0.44573617 0
-4.7362509 1.4853265 -0.45027509 0
-4.5042944 1.5383216 -0.48833758 0
-4.3140941 1.5070134 -0.48425511 0
-4.0943904 1.5201946 -0.48702893 0
-3.9071805 1.5058842 -0.48759654 0
-3.7079391 1.4823166 -0.48846245 0
-3.5198286 1.5102047 -0.4906576 0
-3.3300767 1.5209706 -0.49097842 0
-3.0757177 1.4948248 -0.49228212 0
-2.8672802 1.509132 -0.46245697 0
5.9284601 1.4938898 -0.49842158 0
6.1131568 1.5144136 -0.54733568 0
6.2777634 1.4897932 -0.54887754 0
6.5087414 1.5127306 -0.55003816 0
6.7006674 1.5056865 -0.55343598 0
6.8858151 1.5068457 -0.55271953 0
7.0934548 1.4955744 -0.55654877 0
7.2928715 1.4887265 -0.55668664 0
7.5107093 1.4851118 -0.55674195 0
7.6930161 1.4882032 -0.5596472 0
7.9041972 1.5200521 -0.55851334 0
8.1046095 1.4956727 -0.56550312 0
8.2792368 1.5004834 -0.56468517 0
8.4817858 1.4983195 -0.56389773 0
8.7116327 1.5035436 -0.56672251 0
8.8993797 1.4965974 -0.56727058 0
9.1005411 1.4932427 -0.56828004 0
9.3194141 1.5000079 -0.57260936 0
9.4987659 1.4876244 -0.57072884 0
9.6964493 1.5140598 -0.57562983 0
9.8736839 1.5041347 -0.57434922 0
10.131851 1.5115558 -0.5757305 0
10.290292 1.5034659 -0.57714337 0
10.543088 1.5289316 -0.57959169 0
10.695091 1.4695051 -0.57423878 0
10.90148 1.5021824 -0.57953626 0
11.099294 1.5154829 -0.58218396 0
11.261849 1.5066131 -0.50137758 0
-11.28537 1.6377281 -0.42799357 0
-11.096915 1.7009586 -0.42456731 0
-10.854288 1.6597979 -0.42714694 0
-10.675639 1.6719831 -0.43123755 0
-10.486082 1.7205696 -0.43242523 0
-10.279161 1.7116193 -0.43571845 0
-10.081685 1.716965 -0.43662825 0
-9.8814821 1.7204438 -0.43598092 0
-9.6806183 1.6789404 -0.437832 0
-9.4798279 1.716799 -0.4442521 0
-9.2832317 1.6386659 -0.44054037 0
-9.079545 1.7044388 -0.45118368 0
-8.9539814 1.7116442 -0.45278937 0
-8.6843061 1.7542731 -0.44645759 0
-8.5339279 1.7354585 -0.44748053 0
-8.279006 1.7182325 -0.44881377 0
-8.0930643 1.6650109 -0.44862717 0
-7.8938727 1.6700827 -0.44552901 0
-7.6965451 1.6936711 -0.44094935 0
-7.5323071 1.6840152 -0.45700598 0
-7.2994518 1.6796488 -0.46508107 0
-7.1159425 1.6856904 -0.46342763 0
-6.9078488 1.7098054 -0.46823865 0
-6.7346368 1.6770829 -0.46208668 0
-6.5097771 1.6574641 -0.46322787 0
-6.2818885 1.6811715 -0.46437144 0
-6.0749602 1.7153491 -0.46921185 0
-5.9015155 1.6608722 -0.47181678 0
-5.7087278 1.7411379 -0.47239035 0
-5.5339689 1.6846796 -0.45015636 0
-5.3044887 1.7594157 -0.44483206 0
-5.1094127 1.7574707 -0.44350719 0
-4.9062891 1.6899259 -0.45494094 0
-4.681777 1.6914297 -0.48513153 0
-4.4944224 1.6932763 -0.48622432 0
-4.3163638 1.7120864 -0.48841158 0
-4.1100221 1.6937385 -0.48830932 0
-3.9159062 1.6986448 -0.49055311 0
-3.7066624 1.6911908 -0.49182853 0
-3.5071447 1.7094795 -0.49202469 0
-3.328212 1.6739031 -0.49390614 0
-3.1242771 1.7070681 -0.49353257 0
-2.8899653 1.7042626 -0.46966276 0
5.9325614 1.7065847 -0.50792897 0
6.0949669 1.6799253 -0.54985577 0
6.2929878 1.6743765 -0.552751 0
6.5106602 1.6844223 -0.55450064 0
6.7159071 1.7004313 -0.55614066 0
6.8958335 1.7018706 -0.55561137 0
7.0778112 1.6953231 -0.55672133 0
7.3202395 1.7080483 -0.55793613 0
7.5065274 1.6803511 -0.5616709 0
7.7046561 1.7291492 -0.56210369 0
7.8928227 1.696514 -0.56100076 0
8.10355 1.6971384 -0.56088638 0
8.3083086 1.7097639 -0.5660612 0
8.4887247 1.7132398 -0.56834012 0
8.7068214 1.7162167 -0.56745487 0
8.8977976 1.6829721 -0.56797785 0
9.1240683 1.6935595 -0.57092208 0
9.2720575 1.7166802 -0.57286006 0
9.4993477 1.7040141 -0.57596749 0
9.699708 1.6973072 -0.57594675 0
9.8942347 1.7207628 -0.57777661 0
10.135243 1.6845825 -0.57712936 0
10.240026 1.7378011 -0.57986623 0
10.491164 1.7074561 -0.58090276 0
10.70694 1.7295326 -0.58080471 0
10.922105 1.6674635 -0.58019459 0
11.148351 1.6925346 -0.58190209 0
11.272227 1.7058516 -0.49288878 0
-11.268751 1.8640369 -0.41968948 0
-10.911331 1.8909717 -0.43155575 0
-10.695353 1.8891852 -0.4349317 0
-10.518996 1.9097761 -0.43598655 0
-10.313914 1.9125811 -0.44170341 0
-10.099127 1.8803108 -0.44095579 0
-9.8678961 1.9114256 -0.4401955 0
-9.6323776 1.9368234 -0.44205314 0
-9.5166798 1.9163978 -0.45781884 0
-9.2359009 1.9112291 -0.4553948 0
-9.0926914 1.941211 -0.45018554 0
-8.9115276 1.9165264 -0.44841459 0
-8.7163858 1.8600938 -0.44914395 0
-8.5194588 1.8519502 -0.45054683 0
-8.2813692 1.9069408 -0.45164904 0
-8.0900269 1.8729291 -0.45272499 0
-7.9156618 1.9150101 -0.44694179 0
-7.6974359 1.8834403 -0.44578478 0
-7.5346212 1.8899688 -0.45989332 0
-7.3588181 1.839173 -0.46299565 0
-7.0382595 1.910459 -0.46817619 0
-6.9168644 1.908075 -0.46544322 0
-6.6915679 1.9027238 -0.46841204 0
-6.5207243 1.8667848 -0.46839753 0
-6.3026195 1.936088 -0.47477016 0
-6.0992508 1.9064881 -0.4753224 0
-5.866787 1.8521342 -0.47381762 0
-5.7266216 1.8997873 -0.47452256 0
-5.4809241 1.8976427 -0.47569424 0
-5.2680993 1.8651748 -0.46609083 0
-5.1009636 1.8853077 -0.48039913 0
-4.9200902 1.9157082 -0.48421669 0
-4.6745367 1.882798 -0.48931873 0
-4.4822378 1.9439236 -0.48954672 0
-4.2953305 1.9111316 -0.48817 0
-4.1000876 1.8961548 -0.4911207 0
-3.8873625 1.9050575 -0.49152884 0
-3.7091272 1.8749923 -0.49176645 0
-3.4964769 1.875491 -0.49250442 0
-3.2873836 1.8917242 -0.49511409 0
-3.1088591 1.9056433 -0.49679133 0
-2.8905811 1.9071814 -0.47488743 0
5.9361582 1.905854 -0.51153457 0
6.1110153 1.8868029 -0.55117565 0
6.2981381 1.8974236 -0.55480671 0
6.4789577 1.914914 -0.55661511 0
6.688693 1.9128881 -0.5573402 0
6.8929958 1.890866 -0.55684304 0
7.0875311 1.9028181 -0.55932337 0
7.2723169 1.9046764 -0.56103611 0
7.5143294 1.8844013 -0.56154537 0
7.7253637 1.8989151 -0.56356275 0
7.8876801 1.8842411 -0.56298584 0
8.0878277 1.8897445 -0.56547993 0
8.298913 1.8972743 -0.56652707 0
8.4957018 1.910904 -0.56857896 0
8.6968355 1.8989319 -0.57020491 0
8.9081469 1.8927101 -0.57193679 0
9.1208401 1.8932654 -0.5714134 0
9.3171101 1.9156283 -0.57371598 0
9.5338039 1.9067833 -0.57513887 0
9.6918821 1.8709022 -0.57893926 0
9.9006519 1.9143453 -0.57853484 0
10.094659 1.9052681 -0.57714605 0
10.231071 1.9149691 -0.58576316 0
10.476406 1.8869424 -0.58115089 0
10.696966 1.8822852 -0.58095145 0
10.8845 1.8772618 -0.58427131 0
11.114627 1.8704174 -0.57648551 0
11.27295 1.8970658 -0.49765003 0
-11.303322 2.0745304 -0.42425933 0
-11.085738 2.0849323 -0.42944807 0
-10.888187 2.105315 -0.43475839 0
-10.692221 2.1009881 -0.43561894 0
-10.477785 2.0708182 -0.43343577 0
-10.295732 2.1005483 -0.44197154 0
-10.113398 2.1239312 -0.4424943 0
-9.8940401 2.1256728 -0.44138372 0
-9.7066574 2.0858254 -0.44302303 0
-9.5188761 2.1194043 -0.45363861 0
-9.3162851 2.0762067 -0.45035028 0
-9.0821571 2.1025698 -0.4524534 0
-8.8781252 2.0438378 -0.44899514 0
-8.4337368 2.1361625 -0.45402655 0
-8.2794065 2.0866942 -0.45567587 0
-8.0870256 2.1195948 -0.45453051 0
-7.854435 2.1250219 -0.43166646 0
-7.7096863 2.0844171 -0.43661615 0
-7.5195885 2.0799077 -0.46390441 0
-7.2965884 2.0856068 -0.46563232 0
-7.1003976 2.1032469 -0.46668833 0
-6.808867 2.0981655 -0.47426963 0
-6.6706161 2.0846708 -0.4672153 0
-6.5183363 2.1100631 -0.47230268 0
-6.2872367 2.0699959 -0.47205308 0
-6.118475 2.1205742 -0.47450835 0
-5.9101148 2.099092 -0.47690925 0
-5.7122436 2.1119785 -0.47747651 0
-5.4916158 2.0826435 -0.48224357 0
-5.3219547 2.0978501 -0.48336628 0
-5.0765753 2.1040399 -0.48475274 0
-4.9159517 2.1193917 -0.49107131 0
-4.7145152 2.0999165 -0.4857856 0
-4.53262 2.0848312 -0.48717734 0
-4.3072557 2.1027808 -0.49048173 0
-4.0987697 2.1086013 -0.49324796 0
-3.9056091 2.128468 -0.49357611 0
-3.6862669 2.0951245 -0.49449074 0
-3.5021935 2.0659122 -0.49682829 0
-3.2950859 2.0942149 -0.49721217 0
-3.0813379 2.1151967 -0.49827671 0
-2.8632038 2.0988278 -0.46727228 0
5.9401689 2.1247907 -0.51812893 0
6.1116962 2.100843 -0.55180758 0
6.2955556 2.1111124 -0.55481577 0
6.5182042 2.1004109 -0.55659455 0
6.6776791 2.0902729 -0.55850786 0
6.9109378 2.1145225 -0.56128865 0
7.1355367 2.1040969 -0.55944407 0
7.3044982 2.0731947 -0.56149322 0
7.4778314 2.1230915 -0.56261289 0
7.6890464 2.0956397 -0.56483376 0
7.9068422 2.0596044 -0.56526721 0
8.1085558 2.1209214 -0.57073939 0
8.314971 2.1020851 -0.56801641 0
8.5087996 2.1064465 -0.56766868 0
8.707303 2.053576 -0.57224941 0
8.8947325 2.1080701 -0.57398063 0
9.1075697 2.1009197 -0.5733307 0
9.2669086 2.1423564 -0.57483596 0
9.4763803 2.1093562 -0.5775423 0
9.7142954 2.0917721 -0.57816952 0
9.9158583 2.1062291 -0.57896876 0
10.100061 2.1076696 -0.58061391 0
10.326894 2.0936596 -0.58163011 0
10.517365 2.069948 -0.58218616 0
10.687596 2.0958624 -0.5864262 0
10.90388 2.1022124 -0.58463591 0
11.009758 2.0168586 -0.58072853 0
11.274079 2.099535 -0.5045014 0
-11.300664 2.3130078 -0.4165965 0
-11.095052 2.2606058 -0.42941594 0
-10.873151 2.3264208 -0.43250379 0
-10.647725 2.3122818 -0.4413211 0
-10.519301 2.2873874 -0.44104794 0
-10.281565 2.3270042 -0.44581366 0
-10.071964 2.2782905 -0.44423237 0
-9.9371643 2.3118505 -0.44645649 0
-9.6987371 2.2830989 -0.45239449 0
-9.5018272 2.336334 -0.45573774 0
-9.3547974 2.285568 -0.44713348 0
-9.136055 2.2775407 -0.44983065 0
-8.9263744 2.2898457 -0.45165089 0
-8.6842623 2.299505 -0.45218793 0
-8.4867992 2.2762177 -0.45345739 0
-8.2926416 2.2767868 -0.45557815 0
-8.133708 2.2748828 -0.45660236 0
-7.913106 2.3165855 -0.46320778 0
-7.7067523 2.3281119 -0.46294799 0
-7.523427 2.3226757 -0.46273002 0
-7.2852173 2.3351479 -0.46589801 0
-7.138474 2.2948799 -0.46609625 0
-6.8839149 2.287137 -0.46813887 0
-6.6809783 2.3124499 -0.47162151 0
-6.4956741 2.3128824 -0.47051445 0
-6.2954111 2.3090892 -0.47685269 0
-6.1256232 2.2959809 -0.47076541 0
-5.9072275 2.2873759 -0.4769969 0
-5.7289114 2.3060319 -0.47872931 0
-5.4867358 2.2998891 -0.48124295 0
-5.2967186 2.3084252 -0.48550546 0
-5.1315079 2.3111656 -0.48572752 0
-4.8715668 2.2815511 -0.488096 0
-4.6963925 2.296778 -0.49030718 0
-4.4786034 2.3347712 -0.49465463 0
-4.2865977 2.289829 -0.49207959 0
-4.0744123 2.2974222 -0.49429137 0
-3.8752048 2.2960026 -0.49469078 0
-3.6850545 2.3247821 -0.49684709 0
-3.5030048 2.2921386 -0.49690565 0
-3.287194 2.3045583 -0.49807501 0
-3.1062124 2.3122697 -0.49954867 0
-2.8743284 2.3079424 -0.47209167 0
5.9413986 2.2905414 -0.52073658 0
6.1162062 2.2844183 -0.55735654 0
6.3016415 2.306658 -0.56020379 0
6.5055513 2.3036778 -0.55927694 0
6.7090797 2.2977879 -0.56033438 0
6.8962831 2.3029375 -0.55999422 0
7.1034198 2.2982507 -0.56346327 0
7.3071709 2.3034863 -0.56442797 0
7.498497 2.3097324 -0.56687176 0
7.6994963 2.3088591 -0.56828511 0
7.8931456 2.2814641 -0.56686413 0
8.098629 2.3118296 -0.56972343 0
8.2714968 2.3031423 -0.5713113 0
8.4965878 2.2868512 -0.57235831 0
8.7102947 2.2989604 -0.57445222 0
8.9003515 2.3022044 -0.57385945 0
9.0975628 2.2898948 -0.5765565 0
9.2815237 2.3127501 -0.58002537 0
9.4855061 2.2929583 -0.57731992 0
9.6944809 2.2799292 -0.5782823 0
9.9225159 2.3033199 -0.58418697 0
10.126032 2.3469081 -0.58517545 0
10.303385 2.2886209 -0.58260429 0
10.500839 2.2442114 -0.58195978 0
10.705462 2.3000534 -0.58813959 0
10.895374 2.327167 -0.59056646 0
11.141926 2.3428068 -0.59048223 0
11.275023 2.2990408 -0.50397259 0
-11.287893 2.5312021 -0.41972673 0
-10.998408 2.4972858 -0.43525437 0
-10.700932 2.4837699 -0.44075161 0
-10.452958 2.4641531 -0.4432061 0
-10.274403 2.5211043 -0.44722292 0
-10.113918 2.4877796 -0.44372088 0
-9.8898411 2.5336187 -0.44539043 0
-9.6868143 2.4890122 -0.45135874 0
-9.5302811 2.4670427 -0.45808235 0
-9.3386984 2.5558159 -0.45176378 0
-9.1037283 2.4772642 -0.4530772 0
-8.9235668 2.5252812 -0.45496163 0
-8.7090921 2.503227 -0.45425534 0
-8.4994659 2.4821742 -0.45627967 0
-8.2961874 2.5005367 -0.46030059 0
-8.0624533 2.4982412 -0.45911866 0
-7.9037271 2.5212674 -0.46534657 0
-7.7346478 2.4610269 -0.4620688 0
-7.4737649 2.4981794 -0.46221748 0
-7.2973075 2.5064969 -0.46865225 0
-7.1172013 2.5489271 -0.46700883 0
-6.8958077 2.4962049 -0.47208083 0
-6.7034521 2.5044134 -0.47056761 0
-6.4923487 2.4967582 -0.47253761 0
-6.3071918 2.5025592 -0.47492486 0
-6.08213 2.5093675 -0.47717583 0
-5.895216 2.5076649 -0.47509363 0
-5.7329574 2.4980443 -0.48026142 0
-5.4886541 2.4900484 -0.48626059 0
-5.3225918 2.4684269 -0.48495984 0
-5.0953565 2.5183489 -0.49162385 0
-4.9132795 2.4835739 -0.48732367 0
-4.7155647 2.4904802 -0.49088302 0
-4.4908142 2.5018725 -0.490603 0
-4.3116117 2.4836509 -0.49348497 0
-4.0818858 2.5184069 -0.49650443 0
-3.8947897 2.4869878 -0.4964692 0
-3.7178388 2.4858451 -0.49831933 0
-3.4855421 2.4748776 -0.49945319 0
-3.3045559 2.4830337 -0.50120699 0
-3.1142118 2.5219221 -0.50285387 0
-2.8585572 2.4800675 -0.47388816 0
5.9382954 2.5009882 -0.5086143 0
6.1218648 2.5040667 -0.55887729 0
6.294879 2.4999201 -0.55775148 0
6.5007405 2.5351758 -0.56158018 0
6.6952758 2.5116148 -0.5631668 0
6.9237614 2.4858415 -0.56322014 0
7.0978112 2.5078506 -0.56486511 0
7.3060632 2.496001 -0.5643124 0
7.4932642 2.5129282 -0.56859034 0
7.6745148 2.5182099 -0.56978321 0
7.8966532 2.5198276 -0.57251495 0
8.0779266 2.4765475 -0.56829315 0
8.321022 2.504159 -0.57354128 0
8.4906511 2.4974303 -0.57288349 0
8.7015047 2.4958854 -0.57412416 0
8.8868971 2.4908552 -0.57714611 0
9.1109877 2.5016887 -0.58134991 0
9.3004894 2.5074928 -0.57931334 0
9.5033855 2.5219321 -0.58171082 0
9.6821251 2.4967549 -0.58075738 0
9.8816404 2.496279 -0.58365875 0
10.123089 2.5232177 -0.58732665 0
10.275865 2.4935758 -0.58842742 0
10.552006 2.5013847 -0.58963645 0
10.729542 2.503104 -0.58781654 0
10.91634 2.5443878 -0.5909676 0
11.10544 2.5066659 -0.58311403 0
11.275427 2.5014687 -0.50427175 0
-11.273674 2.7141659 -0.42139763 0
-11.113907 2.7652836 -0.43677008 0
-10.911459 2.6737726 -0.44434017 0
-10.729468 2.7039096 -0.44479826 0
-10.588265 2.6074913 -0.43614224 0
-10.272123 2.7206185 -0.4468635 0
-10.077928 2.6770184 -0.44741535 0
-9.862484 2.7335691 -0.45116159 0
-9.7039518 2.6881878 -0.45172632 0
-9.476367 2.7036469 -0.46375993 0
-9.25107 2.7572589 -0.45545077 0
-9.0913944 2.6890981 -0.45458597 0
-8.9015303 2.6534648 -0.45554641 0
-8.7028627 2.7091339 -0.45715842 0
-8.4908333 2.6819413 -0.45691761 0
-8.2487555 2.775882 -0.46279827 0
-8.0840607 2.6785436 -0.46301979 0
-7.8713555 2.6995125 -0.4641273 0
-7.6895342 2.6808107 -0.4639712 0
-7.5075898 2.6940737 -0.46740043 0
-7.3248491 2.736527 -0.47030368 0
-7.0695491 2.7056999 -0.47522366 0
-6.9268875 2.6937273 -0.47259784 0
-6.698545 2.6936362 -0.47251531 0
-6.4843984 2.7468765 -0.47287652 0
-6.3081441 2.7150617 -0.48299319 0
-6.0879745 2.6947339 -0.47916126 0
-5.882062 2.7063537 -0.47842598 0
-5.6825399 2.6857336 -0.4870936 0
-5.4979901 2.70204 -0.48826888 0
-5.3035173 2.6763475 -0.48650622 0
-5.1244445 2.7221639 -0.48793057 0
-4.930469 2.6761973 -0.49272224 0
-4.7084713 2.7234747 -0.49588776 0
-4.4860234 2.6897283 -0.49238682 0
-4.3233075 2.7144651 -0.49409771 0
-4.1277652 2.7005742 -0.49928305 0
-3.9170656 2.6926262 -0.50059736 0
-3.6867335 2.6920059 -0.49953294 0
-3.5163734 2.6907887 -0.50007033 0
-3.3104768 2.7022538 -0.50399649 0
-3.1006765 2.7173581 -0.50111663 0
-2.8715515 2.7043164 -0.48601472 0
-2.7181535 2.7621074 -0.4594444 0
-2.5042248 2.7603469 -0.46612871 0
-2.3040764 2.7570868 -0.459782 0
-2.0976028 2.7517099 -0.45350409 0
-1.9039967 2.7533581 -0.45492423 0
-1.7220482 2.7530916 -0.45954165 0
-1.4895523 2.7566426 -0.46636155 0
-1.299126 2.7521799 -0.46383673 0
-1.0910031 2.7486966 -0.46037006 0
-0.88442993 2.7472746 -0.45670158 0
-0.69262022 2.7523136 -0.4675658 0
-0.48821703 2.7424836 -0.4664157 0
-0.29799071 2.7457762 -0.47423428 0
-0.10908519 2.7408712 -0.46545169 0
0.09214934 2.7485826 -0.47397813 0
0.29805213 2.7449806 -0.47198457 0
0.50404632 2.7441988 -0.47393152 0
0.67791617 2.7414248 -0.4740091 0
0.88745087 2.7414448 -0.47704431 0
1.0762364 2.7366796 -0.47118583 0
1.3001442 2.7342176 -0.4683032 0
1.5076333 2.7362766 -0.47084674 0
1.6962821 2.7341785 -0.47466904 0
1.9054701 2.7292945 -0.47740036 0
2.1050446 2.726723 -0.47404319 0
2.3140836 2.7313769 -0.48913369 0
2.5000706 2.7378588 -0.48751622 0
2.7048171 2.7262409 -0.47839564 0
2.8975723 2.7290192 -0.49219766 0
3.0935376 2.7201903 -0.47384676 0
3.294199 2.7292974 -0.48782855 0
3.5163159 2.7244701 -0.48773593 0
3.7203398 2.7179778 -0.48645487 0
3.9155803 2.7222009 -0.49323553 0
4.0991201 2.72176 -0.49384263 0
4.3068128 2.7232013 -0.5031178 0
4.5176558 2.7247851 -0.50015551 0
4.7047181 2.7132139 -0.48498341 0
4.9160671 2.7131212 -0.49139944 0
5.1101279 2.7272913 -0.500512 0
5.3080707 2.7122202 -0.50801051 0
5.5088491 2.70755 -0.50437808 0
5.7053766 2.7133591 -0.50576252 0
5.9121318 2.704375 -0.51835001 0
6.1081891 2.6934099 -0.55850875 0
6.2917204 2.7080965 -0.56228876 0
6.5188828 2.7167294 -0.56584138 0
6.6736665 2.6866918 -0.56666303 0
6.8544273 2.6925306 -0.56521028 0
7.0976162 2.7055597 -0.56639767 0
7.2779846 2.7135844 -0.56727737 0
7.5163856 2.7071247 -0.56875253 0
7.7064714 2.6866736 -0.57055295 0
7.9134045 2.6672087 -0.57732993 0
8.0730915 2.7074394 -0.57402956 0
8.3012848 2.7396159 -0.57372427 0
8.4926796 2.6984274 -0.57407719 0
8.6890335 2.6933017 -0.57611048 0
8.9038439 2.7013943 -0.57914245 0
9.0855703 2.6953046 -0.58007193 0
9.2734327 2.6927898 -0.58127236 0
9.505867 2.7108932 -0.58155745 0
9.6954346 2.653204 -0.58402437 0
9.8673134 2.7147739 -0.58491379 0
10.056385 2.7124968 -0.58705354 0
10.289548 2.6861544 -0.59021199 0
10.499144 2.722126 -0.58856404 0
10.674906 2.6669924 -0.59004062 0
10.902515 2.7354825 -0.59251624 0
11.140438 2.6706197 -0.59292251 0
11.277455 2.6971853 -0.50373155 0
-11.263759 2.8937616 -0.42671031 0
-11.076005 2.9493468 -0.42524803 0
-10.940944 2.8878963 -0.43301401 0
-10.679897 2.9212394 -0.43341881 0
-10.476222 2.8889549 -0.42805839 0
-10.303638 2.9148438 -0.4422802 0
-10.083287 2.8948524 -0.44696209 0
-9.8537722 2.9083369 -0.45124245 0
-9.6870327 2.9195108 -0.45134068 0
-9.4847641 2.8954237 -0.45370704 0
-9.3364334 2.8873215 -0.46325177 0
-9.0688572 2.9147892 -0.45817727 0
-8.9461365 2.9047277 -0.4565767 0
-8.6978626 2.9342942 -0.45969456 0
-8.4845743 2.8922102 -0.4616597 0
-8.3071938 2.9258242 -0.462547 0
-8.1227303 2.8962004 -0.46319589 0
-7.8954372 2.8932576 -0.46605763 0
-7.6812634 2.9232895 -0.46759817 0
-7.4657822 2.9083097 -0.47127044 0
-7.3523765 2.9036479 -0.4710744 0
-7.0965614 2.9207499 -0.4760609 0
-6.9304113 2.9046078 -0.47648948 0
-6.688633 2.8996615 -0.47476628 0
-6.4982491 2.9272244 -0.47856924 0
-6.3027034 2.9234736 -0.48098531 0
-6.0994706 2.9446905 -0.47969815 0
-5.9082093 2.8984702 -0.48448345 0
-5.7045951 2.8887997 -0.48938501 0
-5.4812713 2.9001245 -0.4920786 0
-5.2827735 2.9036853 -0.49037126 0
-5.1147475 2.8903306 -0.49219146 0
-4.8809767 2.8683634 -0.49292046 0
-4.6900444 2.9242272 -0.49600711 0
-4.4837184 2.9081023 -0.49832663 0
-4.2987881 2.8921714 -0.49393088 0
-4.1152596 2.8741338 -0.49758819 0
-3.8997307 2.8861933 -0.50105166 0
-3.7007654 2.9036932 -0.50073332 0
-3.5166948 2.883872 -0.50410724 0
-3.3189228 2.8920505 -0.50481832 0
-3.0951686 2.9158468 -0.50615269 0
-2.8929989 2.9064264 -0.50638795 0
-2.7144017 2.9138403 -0.49393713 0
-2.4897141 2.9162486 -0.50766718 0
-2.2808084 2.8984921 -0.5051927 0
-2.0807674 2.8850193 -0.50682503 0
-1.8894585 2.9049287 -0.51026857 0
-1.7213128 2.9078581 -0.51065946 0
-1.514123 2.9027455 -0.51529998 0
-1.3064758 2.9104288 -0.51320887 0
-1.1282084 2.9084377 -0.51708823 0
-0.89587951 2.9024055 -0.51863736 0
-0.71031702 2.9032075 -0.51790148 0
-0.52685565 2.9226873 -0.52252251 0
-0.32372394 2.9227302 -0.52070361 0
-0.094205193 2.9079454 -0.52586073 0
0.1038179 2.9436831 -0.52523792 0
0.28271845 2.9438715 -0.52645767 0
0.47881427 2.9271827 -0.52711922 0
0.70332658 2.914819 -0.52772206 0
0.90191394 2.9052236 -0.53241426 0
1.1018201 2.8915558 -0.53063983 0
1.3266803 2.8955624 -0.53157824 0
1.5247111 2.9173028 -0.53686267 0
1.7036643 2.9231234 -0.5342986 0
1.8988655 2.9145005 -0.53479427 0
2.100023 2.926729 -0.53562164 0
2.3044086 2.9605694 -0.54201239 0
2.5065243 2.9214995 -0.54250383 0
2.7015641 2.913286 -0.54110605 0
2.8965294 2.9267781 -0.54197925 0
3.0948999 2.94838 -0.54480654 0
3.2919457 2.9147182 -0.54629791 0
3.4982851 2.9010954 -0.54748112 0
3.6904521 2.8993709 -0.54891008 0
3.881721 2.9220948 -0.55053568 0
4.0942955 2.9055104 -0.55353719 0
4.3075614 2.9075232 -0.55351633 0
4.483706 2.9223404 -0.55142862 0
4.6682425 2.9233568 -0.55550283 0
4.8751292 2.9076948 -0.55629623 0
5.1182938 2.9640083 -0.55740649 0
5.2793069 2.916405 -0.55921137 0
5.5135074 2.9216316 -0.55999672 0
5.7119761 2.9102607 -0.56260872 0
5.8959675 2.8975132 -0.5631088 0
6.0832615 2.9024687 -0.56237084 0
6.3046331 2.8852413 -0.56195045 0
6.4971313 2.908865 -0.56456733 0
6.7238073 2.9073942 -0.56568164 0
6.8973217 2.8853772 -0.56661969 0
7.1098104 2.8787093 -0.56713688 0
7.2842889 2.897243 -0.5688585 0
7.5015473 2.9069035 -0.569736 0
7.7143149 2.9023526 -0.57199174 0
7.8807778 2.8910909 -0.57516396 0
8.1166487 2.899456 -0.57585835 0
8.3045063 2.8728955 -0.57594913 0
8.5114326 2.8977954 -0.57927185 0
8.7068462 2.8870199 -0.57735205 0
8.9101696 2.8795135 -0.5813818 0
9.1187611 2.9017565 -0.58118969 0
9.2703581 2.8868072 -0.58222413 0
9.5057125 2.9025247 -0.5856517 0
9.6887236 2.9342308 -0.5856263 0
9.8985968 2.8978117 -0.58746117 0
10.040998 2.8936021 -0.59070045 0
10.309501 2.9179971 -0.59034228 0
10.500153 2.8941574 -0.59034938 0
10.703 2.8791308 -0.59420061 0
10.865259 2.9103429 -0.59297925 0
11.08157 2.9330072 -0.59431028 0
11.279538 2.8944864 -0.50017697 0
-11.25838 3.1015291 -0.42685631 0
-10.884331 3.0121086 -0.44119665 0
-10.702642 3.0391755 -0.43828195 0
-10.486852 3.0280628 -0.43999359 0
-10.264277 3.0347438 -0.42968178 0
-10.054813 3.0421867 -0.42277369 0
-9.8436565 3.1143184 -0.45214978 0
-9.6694221 3.1739092 -0.45418915 0
-9.5249119 3.1247532 -0.45627937 0
-9.3208389 3.0932643 -0.4653579 0
-9.1204367 3.1069174 -0.45787615 0
-8.8781586 3.0864463 -0.46093383 0
-8.714716 3.1218629 -0.46211153 0
-8.5155296 3.073097 -0.46221009 0
-8.3050833 3.1182499 -0.46467769 0
-8.0777903 3.099468 -0.46569961 0
-7.9323535 3.0904109 -0.46739244 0
-7.718739 3.1286335 -0.469634 0
-7.4637942 3.0571706 -0.47322536 0
-7.2804627 3.118824 -0.47261882 0
-7.0812302 3.1130581 -0.47499651 0
-6.880106 3.0779278 -0.47279254 0
-6.7213078 3.1269152 -0.47644594 0
-6.5003328 3.0814712 -0.48290583 0
-6.3249125 3.0870683 -0.48198375 0
-6.0812607 3.1019976 -0.48399752 0
-5.9122477 3.0654893 -0.48290548 0
-5.6812348 3.0701241 -0.49046245 0
-5.5156293 3.0974281 -0.49143735 0
-5.2955022 3.1194077 -0.4933655 0
-5.1129313 3.1131213 -0.49676198 0
-4.8816471 3.1500297 -0.49630705 0
-4.7028155 3.0900006 -0.49637035 0
-4.5084281 3.1013823 -0.49626082 0
-4.3242617 3.0775495 -0.49699762 0
-4.0692058 3.0631621 -0.50213802 0
-3.9182053 3.1101546 -0.50355792 0
-3.7025583 3.075959 -0.50300163 0
-3.4679918 3.0942862 -0.50502682 0
-3.2745352 3.1150258 -0.50729167 0
-3.0773749 3.1034827 -0.5069617 0
-2.9058712 3.1083672 -0.507487 0
-2.7273967 3.0796874 -0.50946778 0
-2.5115573 3.1227417 -0.50913167 0
-2.3035223 3.090193 -0.51240343 0
-2.0971148 3.0906968 -0.51312715 0
-1.8974577 3.1196594 -0.515571 0
-1.6987842 3.1089647 -0.51731139 0
-1.5058709 3.0803146 -0.51700681 0
-1.3169142 3.0686111 -0.51782435 0
-1.1078405 3.1060712 -0.51882094 0
-0.88508362 3.0992615 -0.52058512 0
-0.69785351 3.1117914 -0.52290624 0
-0.52305549 3.1086202 -0.52393413 0
-0.28998372 3.1051452 -0.524858 0
-0.10828564 3.1091058 -0.52706653 0
0.10001139 3.1239913 -0.52609926 0
0.30859739 3.1217077 -0.52868432 0
0.50662273 3.088999 -0.5287205 0
0.70524848 3.0839891 -0.53160006 0
0.91297233 3.0877061 -0.53322184 0
1.1367902 3.0853972 -0.53290772 0
1.2901859 3.1048875 -0.53375965 0
1.5183754 3.1209953 -0.53728771 0
1.6928285 3.1057854 -0.53796339 0
1.9183884 3.1100998 -0.53757048 0
2.1175447 3.1056435 -0.5386135 0
2.3092136 3.119812 -0.54212695 0
2.5129471 3.0953979 -0.54275978 0
2.6857457 3.0853016 -0.5445509 0
2.8878245 3.1193533 -0.54335952 0
3.0886328 3.1266904 -0.54742151 0
3.2968001 3.0968177 -0.54774469 0
3.5141683 3.0968232 -0.55133188 0
3.682766 3.1072452 -0.54863423 0
3.9052427 3.1072984 -0.55401725 0
4.0726824 3.0937552 -0.55173481 0
4.2721987 3.1029844 -0.55522388 0
4.4981833 3.1132166 -0.5543896 0
4.6654277 3.0824225 -0.55728751 0
4.861496 3.1123796 -0.55816519 0
5.0766335 3.0876048 -0.56002712 0
5.2873302 3.1257172 -0.56100965 0
5.502851 3.0980113 -0.56165671 0
5.6896119 3.1133325 -0.56189072 0
5.8776274 3.1147254 -0.56428879 0
6.1069441 3.0955415 -0.5666213 0
6.296 3.1119733 -0.5637899 0
6.4996858 3.1124921 -0.56706387 0
6.6916561 3.1207964 -0.56787968 0
6.8944993 3.0937974 -0.56833535 0
7.0704379 3.0888872 -0.56762654 0
7.3095231 3.0995681 -0.57021815 0
7.4983521 3.1089988 -0.57217407 0
7.6992197 3.0940378 -0.57517987 0
7.8982301 3.0688491 -0.5763377 0
8.1153774 3.1325574 -0.57823628 0
8.2811823 3.1241536 -0.57826841 0
8.5019436 3.1091788 -0.57911462 0
8.7254601 3.0816612 -0.58065265 0
8.8925066 3.0821936 -0.58243465 0
9.079011 3.0765562 -0.58274221 0
9.3129778 3.103219 -0.58681256 0
9.5130768 3.1279359 -0.58854032 0
9.6660175 3.1133199 -0.5880276 0
9.8872566 3.1035254 -0.58809036 0
10.117927 3.1312382 -0.59127647 0
10.276962 3.0968668 -0.59110713 0
10.545779 3.1313851 -0.59439856 0
10.734496 3.0846817 -0.59461427 0
10.94587 3.1023333 -0.59696835 0
11.034842 3.1570277 -0.59941244 0
11.280293 3.094533 -0.50097948 0
-11.246497 3.3781176 -0.40350196 0
-10.058189 3.2805791 -0.42132616 0
-9.9177418 3.2796783 -0.44098014 0
-9.7029953 3.2964244 -0.45711356 0
-9.5241785 3.2956264 -0.45734397 0
-9.3034449 3.3099918 -0.46585447 0
-9.0954781 3.2792225 -0.46151376 0
-8.8750668 3.3221493 -0.46298322 0
-8.7206135 3.3044169 -0.46349061 0
-8.507596 3.3019421 -0.46588421 0
-8.263526 3.3224699 -0.46673515 0
-8.0650616 3.3173442 -0.46868673 0
-7.9144778 3.2688792 -0.46907783 0
-7.6744976 3.2869234 -0.4719758 0
-7.4851947 3.288924 -0.47393367 0
-7.3149643 3.2980297 -0.4759025 0
-7.1107445 3.330857 -0.47644082 0
-6.8940063 3.3391995 -0.47844586 0
-6.7166243 3.3123507 -0.47523174 0
-6.4748535 3.3034191 -0.48051265 0
-6.2846975 3.2779629 -0.48968926 0
-6.0979819 3.3012841 -0.49115887 0
-5.8725314 3.320225 -0.47470659 0
-5.6565361 3.2857084 -0.49075496 0
-5.4748144 3.2802069 -0.49079442 0
-5.3180747 3.2754447 -0.49343771 0
-5.0975399 3.2798653 -0.49803579 0
-4.9039879 3.3078301 -0.50032532 0
-4.7238669 3.2968178 -0.49917138 0
-4.5022926 3.3183706 -0.49747691 0
-4.2981591 3.2699029 -0.49708387 0
-4.073278 3.2893286 -0.50381917 0
-3.9063165 3.2843726 -0.50478017 0
-3.7138379 3.3141003 -0.50490987 0
-3.489994 3.2939885 -0.50762731 0
-3.2888205 3.3021853 -0.50804198 0
-3.0972879 3.3032665 -0.50972128 0
-2.8827341 3.274251 -0.50981307 0
-2.6849456 3.2820663 -0.51324469 0
-2.4703271 3.2816353 -0.51495939 0
-2.2860088 3.287626 -0.51293904 0
-2.0775504 3.298414 -0.51613486 0
-1.8863436 3.3161511 -0.51669133 0
-1.6972883 3.2960572 -0.51835155 0
-1.4569426 3.2950609 -0.51858157 0
-1.2994641 3.2604859 -0.52098626 0
-1.0882465 3.3035202 -0.51988697 0
-0.87514228 3.3242974 -0.52402782 0
-0.67070597 3.3168364 -0.52410871 0
-0.5103395 3.2906921 -0.52476847 0
-0.27354217 3.2970464 -0.52519214 0
-0.095973112 3.2972298 -0.52992219 0
0.092044152 3.3222454 -0.52903926 0
0.29739231 3.3323617 -0.53066242 0
0.48889622 3.2996464 -0.53212619 0
0.71350217 3.2879581 -0.53254896 0
0.90475953 3.2977891 -0.53494012 0
1.1142051 3.3007636 -0.53481126 0
1.2914881 3.2822545 -0.53517646 0
1.5325587 3.2885661 -0.53929913 0
1.6874565 3.3100996 -0.54119223 0
1.8932258 3.2942703 -0.53898132 0
2.0853679 3.2980106 -0.54014802 0
2.289644 3.3043818 -0.54261822 0
2.5298355 3.3001604 -0.54516852 0
2.6943195 3.2923958 -0.54814881 0
2.8896794 3.2918558 -0.54368198 0
3.1070044 3.2986841 -0.54748297 0
3.3559036 3.2992964 -0.54978621 0
3.50892 3.3235714 -0.55310357 0
3.7106488 3.3149846 -0.55224794 0
3.896029 3.3240459 -0.55408114 0
4.1308618 3.2987747 -0.55519348 0
4.3135333 3.3175957 -0.55793637 0
4.5154324 3.2961528 -0.55707371 0
4.6792836 3.3325818 -0.55745649 0
4.8870769 3.2994175 -0.55850416 0
5.0926018 3.2940426 -0.56162745 0
5.3228145 3.3004208 -0.56103575 0
5.4908571 3.3160014 -0.56322157 0
5.6892715 3.289746 -0.5621292 0
5.8941345 3.3023248 -0.56527311 0
6.1000843 3.3014078 -0.56833178 0
6.3180923 3.3083026 -0.56774247 0
6.5077491 3.3050432 -0.57054836 0
6.7028146 3.2817559 -0.56785864 0
6.9185143 3.299186 -0.57089949 0
7.1093903 3.2905662 -0.57167226 0
7.2879109 3.2788796 -0.57157403 0
7.5013909 3.2863142 -0.57386929 0
7.6633525 3.3062303 -0.57704061 0
7.8884001 3.2808967 -0.57875353 0
8.0959864 3.2946758 -0.57915026 0
8.2778721 3.3261642 -0.58304369 0
8.49508 3.3121541 -0.58032757 0
8.7088337 3.2978849 -0.58199036 0
8.8709831 3.2691371 -0.58323359 0
9.0572805 3.3147256 -0.58939707 0
9.3041592 3.321593 -0.58810461 0
9.5121737 3.298471 -0.58764219 0
9.6694393 3.2722514 -0.58991855 0
9.8829193 3.2974238 -0.59061801 0
10.099356 3.3018422 -0.59141666 0
10.279479 3.307179 -0.59339255 0
10.482014 3.2798755 -0.59400779 0
10.698454 3.3125858 -0.59535885 0
10.9249 3.2793384 -0.59671724 0
11.060788 3.2698495 -0.59478348 0
11.281649 3.2962868 -0.5090425 0
-11.239632 3.5406787 -0.41859224 0
-10.04499 3.4612448 -0.43076608 0
-9.874402 3.4993036 -0.45758501 0
-9.6672144 3.4752364 -0.45932496 0
-9.4650631 3.491807 -0.45988202 0
-9.2962132 3.4904299 -0.46185917 0
-9.0616121 3.5152056 -0.46505359 0
-8.8667612 3.5048015 -0.46587446 0
-8.67764 3.4942291 -0.46555179 0
-8.4590168 3.5143013 -0.46877792 0
-8.339118 3.4970796 -0.4678371 0
-8.1158733 3.5161736 -0.47065952 0
-7.9069519 3.5287318 -0.47398615 0
-7.7034101 3.4751496 -0.47396547 0
-7.4847422 3.497622 -0.47032982 0
-7.3084631 3.518805 -0.475849 0
-7.0827203 3.5086586 -0.47919601 0
-6.9047379 3.4662263 -0.47790754 0
-6.7133274 3.4687414 -0.48165774 0
-6.5022483 3.4639008 -0.47996387 0
-6.2955036 3.4995198 -0.48814142 0
-6.0768023 3.522778 -0.47172791 0
-5.8763351 3.4375508 -0.43890139 0
-5.7100425 3.4926753 -0.44782835 0
-5.5289183 3.5214498 -0.47853747 0
-5.3010879 3.4765899 -0.49474853 0
-5.0954938 3.465162 -0.49916315 0
-4.8647127 3.497072 -0.50138181 0
-4.6964717 3.5038395 -0.50289929 0
-4.5062761 3.5337827 -0.50125074 0
-4.2921386 3.4859316 -0.50142783 0
-4.0959282 3.4400151 -0.50403327 0
-3.8985243 3.472805 -0.50614297 0
