# .PCD v0.7 - Point Cloud Data file format
VERSION 0.7
FIELDS x y z intensity roll pitch yaw time
SIZE 4 4 4 4 4 4 4 8
TYPE F F F F F F F F
COUNT 1 1 1 1 1 1 1 1
WIDTH 62
HEIGHT 1
VIEWPOINT 0 0 0 1 0 0 0
POINTS 62
DATA ascii
-4.4881141e-08 -6.0686434e-06 -5.9777103e-06 0 0.00064797641 -0.029255696 4.539695e-12 3046.629
-1.8959895 -0.16912109 0.018508933 1 0.02339635 -0.020486621 0.084257714 3075.194
-3.4610405 -0.3457734 0.023922972 2 -0.0091296956 -0.036873762 0.11915966 3077.262
-3.0310888 0.074434288 0.021923533 3 -0.0020787648 -0.02390104 0.93385309 3080.194
-3.3230984 -0.28859112 0.039589539 4 0.041075941 0.027851133 1.4129761 3082.161
-3.3372955 -0.190486 0.042418368 5 0.049230803 0.031600446 1.7452602 3082.529
-3.3680305 -0.16827326 0.031267021 6 0.0032968547 0.021898648 2.0817499 3083.028
-3.9288626 0.99823737 0.022142839 7 0.017701993 0.0034045368 2.015883 3085.262
-4.344429 3.2098982 0.0028915345 8 0.010942112 -0.0052687488 1.4736187 3088.294
-4.1364431 3.7116165 -0.0038782135 9 0.0020919784 0.0022270221 1.0120207 3089.094
-3.2670302 4.2488346 -0.0027256606 10 0.00679672 0.047271755 0.15482667 3090.995
-2.2649138 4.3856053 -0.018305702 11 -0.032017022 0.0025751789 0.12984027 3092.495
-0.83928764 4.3956914 -0.033686388 12 -0.006963084 0.0018642306 0.0096334144 3097.363
0.29106584 4.4854169 -0.039740495 13 -0.0091223419 0.0039247768 0.09064278 3098.861
1.6441276 4.6035328 -0.050204732 14 -0.0088388668 -0.0025421511 0.080948196 3100.628
2.5807033 4.6038489 -0.059127256 15 -0.0082611572 -0.024301104 -0.1229107 3106.029
4.4136839 4.2623553 -0.06208542 16 -0.009381406 -0.024835465 -0.20067005 3108.695
5.5284905 4.0336771 -0.073795877 17 -0.003741239 -0.030068224 -0.20401977 3110.194
6.884253 3.3667917 -0.074615449 18 -0.0082585793 -0.03627811 -0.76906931 3112.264
7.6391764 1.5376458 -0.061811939 19 -0.0012754482 -0.039280575 -1.8747505 3115.328
7.3266144 0.93122226 -0.051440526 20 0.00069195015 -0.050505497 -2.0977447 3116.229
6.5157452 -0.011149035 -0.034111217 21 0.0053243442 -0.020085286 -2.3813336 3117.864
5.7157845 -0.70298201 -0.022341073 22 0.0025639089 -0.0026055162 -2.3880095 3119.261
5.4434948 -1.0458221 -0.015298328 23 -0.0012828147 -0.0082794195 -2.1533904 3119.863
4.2249312 -3.3099654 0.010411526 24 -0.0001447434 -0.010353018 -2.0763271 3123.264
3.8688383 -3.7659287 0.019803079 25 0.0047574406 -0.0035960206 -2.3773036 3124.061
3.4342201 -4.0131588 0.023979314 26 0.0057741418 0.0010162684 -2.6812165 3124.764
2.8159616 -4.1556678 0.030940307 27 0.0089618256 0.00075442088 -2.90289 3125.765
1.1998997 -4.3202448 0.043481678 28 0.010435185 -0.039270617 -3.0988879 3128.161
-2.8528626 -4.0202818 0.066360816 29 0.011415732 -0.040954903 -3.1326547 3133.461
-4.4624519 -4.0701885 0.084303252 30 0.009372063 -0.042552721 -3.0265312 3135.629
-5.5002332 -4.2044649 0.089539751 31 0.0061987373 -0.050927997 -3.0153601 3142.496
-7.231925 -4.1732841 0.10394821 32 0.010342697 -0.038370479 3.0231621 3144.961
-9.9498587 -2.8483129 0.11557603 33 0.0099432059 -0.027030446 2.0520234 3149.228
-10.120175 -1.3138165 0.10286048 34 0.010770119 -0.033510253 1.5826457 3151.329
-10.031121 -0.7865926 0.097096622 35 0.0082210805 -0.024862073 1.2899215 3152.065
-9.1418753 2.0416195 0.058323704 36 0.004332901 -0.017486975 1.2809466 3155.964
-8.6229801 4.6487856 0.021313284 37 0.0090334807 -0.028381048 1.2977709 3164.194
-8.0555658 5.9319205 0.001877201 38 -0.0018675362 -0.020251831 0.81194574 3166.094
-7.5833163 6.206399 -0.00044072626 39 -0.0055522248 -0.018351382 0.40619856 3166.894
-7.1493654 6.233592 -0.0019254007 40 -0.017195191 -0.012423117 0.20054057 3167.529
-5.5076394 5.9811511 -0.013414902 41 -0.0098896576 -0.018902596 -0.26213518 3169.761
-3.2995243 5.3679132 -0.023206502 42 -0.01055682 0.01021756 -0.27613366 3172.764
-1.3591181 4.8067608 -0.029233398 43 -0.0084538432 0.0029643746 -0.28774914 3175.394
-0.038228497 4.4101343 -0.035106763 44 -0.0099376924 -0.010323972 -0.29476619 3177.194
1.2505701 4.1132407 -0.039706223 45 -0.0079415897 -0.010039427 -0.16251288 3178.964
2.4637518 4.0451517 -0.04540132 46 -0.0053664683 0.014077607 0.016789936 3189.661
3.8811903 4.2816052 -0.05724306 47 -0.0049644453 0.020620042 0.21602988 3191.561
4.931107 4.4940968 -0.068834983 48 -0.0067202719 0.020625047 0.16684388 3192.961
6.0132256 4.2501445 -0.073198773 49 -0.0090591405 0.0071968567 -0.53597581 3194.594
7.2687507 3.3149581 -0.071871236 50 -0.0095282588 -0.025962915 -0.74116737 3196.664
7.6783972 2.7715526 -0.070578009 51 -0.0079218401 -0.038398691 -1.0535936 3197.595
7.8472238 1.6640147 -0.058342058 52 -0.010321098 -0.058724057 -1.4792714 3199.195
7.7430921 1.2769178 -0.049604207 53 -0.0042712204 -0.038750995 -2.0852435 3199.928
7.418891 0.78938144 -0.045471217 54 0.0025352808 -0.028139489 -2.3302546 3201.294
6.6993756 0.21672472 -0.033711575 55 0.0048574824 -0.010798342 -2.5721035 3202.562
5.7266483 -0.54863447 -0.018759497 56 0.0057263141 -0.026395235 -2.1635909 3307.696
5.5811591 -0.97358131 -0.0070013562 57 0.036356106 -0.0085893953 -1.8601446 3308.37
5.6064816 -1.547308 -0.0024314465 58 0.03168305 -0.01170627 -1.614229 3309.198
5.9343948 -2.5441506 -0.0067135487 59 -0.0049355826 -0.019546282 -1.1496396 3310.595
7.8030939 -5.0059314 0.0006168455 60 -0.010226452 0.010607771 -0.52027851 3314.794
8.39363 -5.1697183 -0.00065320666 61 -0.0083221188 0.010225364 -0.29162765 3315.695
